# .PCD v0.7 - Point Cloud Data file format
VERSION 0.7
FIELDS x y z rgb
SIZE 4 4 4 4
TYPE F F F F
COUNT 1 1 1 1
WIDTH 1004
HEIGHT 1
VIEWPOINT 0 0 0 1 0 0 0
POINTS 1004
DATA ascii
0.60531878 0.33466589 0.65626693 4.1542796e-39
0.61319447 0.33196333 0.65643853 1.2450045e-38
0.58737403 0.34143087 0.65182382 1.7557345e-39
0.5957256 0.3440668 0.65409762 2.5862266e-39
0.60239744 0.34274238 0.65566039 4.3386653e-39
0.26930609 0.56105316 0.65840143 4.1326169e-39
0.27519414 0.56106544 0.65512353 4.1326169e-39
0.28497213 0.56108564 0.65506488 4.1326169e-39
0.29480568 0.56110597 0.65506166 4.1326169e-39
0.3005991 0.56111795 0.65487719 4.1326169e-39
0.26806399 -0.55895036 0.66565186 1.1164145e-41
0.27495167 -0.55893606 0.66499472 1.1164145e-41
0.28495413 -0.55891544 0.66493869 1.1164145e-41
0.29501274 -0.55889457 0.66508633 1.1164145e-41
0.30024913 -0.55888379 0.66357893 1.1164145e-41
0.46334434 -0.4155567 0.66129446 6.2448278e-39
0.45556137 -0.4051677 0.6638971 6.2448278e-39
0.44751543 -0.39299622 0.66487134 7.5369903e-39
0.45128345 -0.39789808 0.66454321 6.2451865e-39
0.44315273 -0.38392383 0.66440177 7.5369889e-39
0.43721473 -0.37360197 0.66483527 8.4557068e-39
0.43178561 -0.36363479 0.66495997 8.7333699e-39
0.44092122 -0.36504716 0.66745061 6.3582587e-39
0.4259463 -0.35365611 0.66538292 1.0485433e-38
0.41970158 -0.34225789 0.6649186 8.2727533e-39
0.42173252 -0.346111 0.6657477 9.8411454e-39
0.41577572 -0.33502167 0.66608775 9.1939809e-39
0.42052206 -0.33974743 0.66877842 1.1040756e-38
0.40890253 -0.32194844 0.66625881 8.3706928e-39
0.41146713 -0.326637 0.66404891 8.0919535e-39
0.40548548 -0.31537905 0.66526288 6.4302952e-39
0.39816749 -0.3015424 0.66929412 6.2448278e-39
0.40106663 -0.30605498 0.66484439 6.2448278e-39
0.63561547 -0.30262756 0.66642112 2.5830022e-39
0.39832565 -0.29368827 0.66519362 6.8016001e-39
0.4014217 -0.29122773 0.66624689 6.2448278e-39
0.62641823 -0.29288056 0.66662508 2.8599577e-39
0.63153839 -0.2982842 0.66697353 2.8599563e-39
0.39578393 -0.28755802 0.66864729 6.3377436e-39
0.40596628 -0.28667709 0.66410792 7.1671302e-39
0.41200718 -0.28191599 0.66429347 6.9852711e-39
0.61923629 -0.28126574 0.6644814 2.8599577e-39
0.62205178 -0.28622538 0.66561794 2.8599577e-39
0.41669044 -0.27801436 0.66473609 8.8389045e-39
0.42541516 -0.27385935 0.66532958 7.4491317e-39
0.43126044 -0.27085561 0.66586357 8.2821293e-39
0.61590415 -0.27535576 0.66529989 3.1361816e-39
0.43619466 -0.26800016 0.66525412 8.0044649e-39
0.44116634 -0.2653358 0.66441196 6.2448278e-39
0.60716164 -0.26404238 0.66479963 1.0141533e-38
0.61120868 -0.26891345 0.6649335 6.2704393e-39
0.5974741 -0.25290567 0.66479671 6.3564538e-39
0.60191005 -0.25756419 0.66517758 8.0170485e-39
0.58856738 -0.24111572 0.66394126 6.6312288e-39
0.59271097 -0.24611354 0.66513664 6.1695276e-39
0.57911223 -0.23032738 0.66014242 7.2784031e-39
0.58395213 -0.23509109 0.66532773 6.2610029e-39
0.57558984 -0.22497539 0.66499394 6.6308687e-39
0.56656784 -0.21441701 0.66515571 7.1869263e-39
0.57132179 -0.2192167 0.66747946 5.7074662e-39
0.55694318 -0.20388222 0.66494262 1.1247868e-38
0.56147182 -0.20869571 0.66585797 8.1103245e-39
0.54864305 -0.19211757 0.66447115 2.9521519e-39
0.55198938 -0.1973294 0.6648168 6.2704393e-39
0.54418904 -0.18477651 0.66489536 2.8599577e-39
0.53859127 -0.17324774 0.66447788 2.8599577e-39
0.54102278 -0.17725356 0.66708416 2.8599577e-39
0.53846157 -0.16546826 0.66485232 2.8599577e-39
0.54135251 -0.16094601 0.66510272 2.8599577e-39
0.54605097 -0.15779078 0.66567439 2.8599577e-39
0.55445111 -0.15295388 0.66592878 2.8599577e-39
0.56512076 -0.150208 0.66677231 3.2287472e-39
0.56519347 -0.1494524 0.6652016 3.5053257e-39
0.5746187 -0.14849302 0.66522425 1.0325932e-38
0.58079147 -0.14893311 0.66847813 1.2075823e-38
0.4460122 -0.072122 0.66611218 7.1015956e-39
0.43722343 -0.063499369 0.6648199 6.1771072e-39
0.44102573 -0.06829384 0.66496211 6.0852717e-39
0.70623446 -0.063448645 0.66717249 7.8063773e-39
0.71307069 -0.067969628 0.66385186 1.3224311e-38
0.43430763 -0.055487882 0.66513544 6.638807e-39
0.69804394 -0.052326594 0.66527265 6.6121557e-39
0.70131004 -0.057376567 0.66625953 6.8876622e-39
0.4366484 -0.04614326 0.66503096 6.9190149e-39
0.44127154 -0.040994104 0.66454804 7.2874372e-39
0.69311386 -0.045107264 0.66511762 7.2550042e-39
0.44589108 -0.037718665 0.66520172 7.2870785e-39
0.45387039 -0.032294817 0.66502827 3.2337428e-39
0.68580914 -0.034704987 0.66531187 8.7243721e-39
0.45856667 -0.02897203 0.66489232 2.8653233e-39
0.46413994 -0.024747189 0.66542977 4.8925299e-39
0.47067958 -0.020532805 0.66585761 7.6558582e-39
0.67768627 -0.02312121 0.66470033 8.7243721e-39
0.68085533 -0.02764575 0.66518074 8.7243721e-39
0.47616699 -0.018958705 0.66785353 7.4729145e-39
0.48231268 -0.018951626 0.6661635 8.0264512e-39
0.66905087 -0.010847804 0.6657716 8.7243721e-39
0.67274052 -0.016119255 0.6648677 8.7243721e-39
0.6651088 -0.0049685123 0.66499221 8.7243721e-39
0.65738976 0.0063188248 0.66487747 8.7243721e-39
0.66101819 0.0010340244 0.66474324 8.7243721e-39
0.64856583 0.018662483 0.66493648 8.7243721e-39
0.65240586 0.013322764 0.66525334 8.7243721e-39
0.64384919 0.025800956 0.66561228 8.7243721e-39
0.6384331 0.036076061 0.66486824 8.8162076e-39
0.64071369 0.033153631 0.66791409 8.9080431e-39
0.45644632 0.049263712 0.66562825 7.467846e-39
0.63892555 0.04087238 0.66624856 8.8162076e-39
0.64460337 0.045624141 0.66379297 8.7243721e-39
0.44979984 0.05355221 0.66345054 7.6582587e-39
0.45131084 0.054793123 0.666399 7.5664232e-39
0.6496166 0.051392548 0.66708732 8.7243721e-39
0.65450698 0.055254553 0.66494614 8.7261728e-39
0.66084945 0.057532046 0.66235113 9.0096022e-39
0.45694 0.062860936 0.66509187 8.3064685e-39
0.46252728 0.067533165 0.66544819 8.3064685e-39
0.66534984 0.063184291 0.66516227 8.7243721e-39
0.6724838 0.067811683 0.66514945 8.7243721e-39
0.46694711 0.070997708 0.66539448 8.3064685e-39
0.47471306 0.076087989 0.66455835 8.3064685e-39
0.48053226 0.079859048 0.66800517 8.3064685e-39
0.67766434 0.070657127 0.66472322 8.7243721e-39
0.68120223 0.07251174 0.66610837 8.7243721e-39
0.48456907 0.08260829 0.66496283 8.3983096e-39
0.49251038 0.087860487 0.6655829 9.6858577e-39
0.4974162 0.091021016 0.66390073 9.134102e-39
0.50507295 0.095777683 0.66500407 8.3983082e-39
0.51540858 0.10215675 0.66528237 9.0419022e-39
0.52475399 0.10736647 0.66428995 8.9500653e-39
0.53445005 0.11252214 0.66514701 8.3983054e-39
0.5437606 0.11748444 0.66447288 8.3061098e-39
0.60933179 0.129425 0.6645844 9.1979269e-40
0.60718459 0.13508846 0.66479653 2.3931081e-39
0.60581332 0.14499564 0.66492432 8.3883618e-39
0.60739571 0.15167594 0.66388255 1.2077628e-38
0.61174583 0.15488535 0.66428661 1.1801041e-38
0.4451488 0.1964556 0.66459912 1.1706156e-38
0.45254382 0.19158457 0.66496694 1.1983106e-38
0.42957032 0.20480613 0.66740602 7.2834225e-39
0.43682906 0.20606464 0.66548955 1.1245193e-38
0.44038609 0.20119143 0.66357869 1.1706156e-38
0.42937502 0.2184708 0.66331697 3.1361816e-39
0.43192598 0.21394783 0.66521746 3.2283703e-39
0.42716354 0.22465171 0.66459334 4.2421368e-39
0.42680725 0.2328749 0.66541803 7.7440237e-39
0.43241745 0.23810472 0.66479594 6.3611257e-39
0.43753162 0.24197438 0.66594136 6.7295369e-39
0.44299009 0.24569999 0.66694099 9.1258357e-39
0.26802802 0.56105047 0.66563112 4.1326169e-39
0.27487761 0.5610646 0.66504395 4.1326169e-39
0.2851288 0.56107032 0.66514879 4.1326169e-39
0.2950635 0.56110638 0.66509289 4.1326169e-39
0.30064842 0.56111795 0.6646328 4.1326169e-39
0.25740907 -0.55920285 0.67329836 1.1164145e-41
0.266325 -0.55895382 0.67533797 1.1164145e-41
0.27502301 -0.55893576 0.67501134 1.1164145e-41
0.28495064 -0.5589152 0.67504662 1.1164145e-41
0.29496977 -0.55889452 0.67494214 1.1164145e-41
0.30026478 -0.55888361 0.67426902 1.1164145e-41
0.45371598 -0.40376252 0.67500943 6.2448278e-39
0.44781899 -0.3937729 0.67532206 6.7068779e-39
0.45156512 -0.3994264 0.67084157 6.2448278e-39
0.4394832 -0.38006896 0.67992359 8.6447602e-39
0.44354615 -0.38605812 0.67360413 8.5529247e-39
0.43774593 -0.37617737 0.67478174 9.839702e-39
0.42901444 -0.36068159 0.67738688 1.0760222e-38
0.43221605 -0.36632326 0.67509961 1.0205613e-38
0.42590302 -0.35492966 0.67522478 1.0761658e-38
0.41889888 -0.34301782 0.67484248 9.7493071e-39
0.42228571 -0.34717572 0.67481899 1.0764888e-38
0.41557118 -0.33554327 0.67539692 1.0674121e-38
0.40853319 -0.32214999 0.67490399 7.446231e-39
0.41127989 -0.32728294 0.6743688 9.6621323e-39
0.40461305 -0.31480199 0.67519069 6.2451865e-39
0.39852706 -0.3028188 0.67644519 6.2448278e-39
0.40135765 -0.30838862 0.67309213 6.2448278e-39
0.63681638 -0.30285767 0.67493248 2.6752021e-39
0.39754426 -0.29614446 0.67533839 6.9870717e-39
0.40134472 -0.29176205 0.67345965 6.2448278e-39
0.62711126 -0.29312375 0.67551178 2.8599577e-39
0.63169074 -0.29803121 0.67452604 2.8595975e-39
0.40621382 -0.28614348 0.67484885 7.1671316e-39
0.41099304 -0.28117868 0.6744836 6.9852725e-39
0.4309727 -0.28133029 0.67007279 6.2448278e-39
0.61935556 -0.28028673 0.67467225 2.9517932e-39
0.62220788 -0.28525192 0.6748625 2.8599577e-39
0.4160465 -0.2783553 0.67494988 8.745627e-39
0.42510915 -0.27487287 0.67511219 7.9122692e-39
0.43349794 -0.27153105 0.6749596 7.44841e-39
0.61627334 -0.27476227 0.6752916 5.901661e-39
0.43820137 -0.26892561 0.67344534 8.7452669e-39
0.44271204 -0.26700088 0.67541015 8.0044635e-39
0.60756564 -0.26298612 0.67505252 1.1616649e-38
0.61207622 -0.26834169 0.67552954 1.1616651e-38
0.59887558 -0.25226524 0.67460686 6.2617218e-39
0.60273963 -0.25694251 0.67535162 9.9546001e-39
0.58892924 -0.24006818 0.67129767 5.9836944e-39
0.5933919 -0.24525163 0.6748417 6.07589e-39
0.5852536 -0.23465069 0.6749357 5.983693e-39
0.577106 -0.22426468 0.67468667 5.9836944e-39
0.58135891 -0.22924016 0.67680633 5.9836944e-39
0.5668121 -0.21236323 0.67442924 6.0762501e-39
0.57186866 -0.21761599 0.6759643 5.9836944e-39
0.55785078 -0.20242429 0.67565 1.1616289e-38
0.5624063 -0.20758888 0.6746071 7.9237697e-39
0.54893339 -0.19205333 0.67523861 2.9521519e-39
0.55276501 -0.19685562 0.67534804 8.5749461e-39
0.54583704 -0.18520699 0.67500752 2.8599577e-39
0.53984934 -0.17051576 0.67626619 2.8599577e-39
0.54197848 -0.17570415 0.67505729 2.8599577e-39
0.53846753 -0.1655329 0.67501098 2.8599577e-39
0.54123288 -0.16097553 0.6741482 2.8599577e-39
0.54633331 -0.15764642 0.67554319 2.8599577e-39
0.55489296 -0.1532011 0.67501491 2.8599577e-39
0.56131071 -0.15052135 0.67645192 2.8599577e-39
0.5653646 -0.1488013 0.67768377 2.9521519e-39
0.57724512 -0.14982581 0.67035007 1.3183975e-38
0.44704601 -0.072083659 0.6737287 6.8250116e-39
0.4521755 -0.074415386 0.67586505 7.5629367e-39
0.43684745 -0.063274309 0.67501819 5.9927159e-39
0.44149554 -0.068838157 0.67526346 6.4540556e-39
0.70792675 -0.063111126 0.67357117 6.7961868e-39
0.71230245 -0.067021079 0.67524189 8.0998905e-39
0.43422824 -0.05416647 0.67467314 7.2841778e-39
0.69808656 -0.052265823 0.67385578 6.6121557e-39
0.70301509 -0.057718888 0.67416328 6.5203202e-39
0.43698528 -0.045748733 0.67477298 7.2870757e-39
0.44135007 -0.041178934 0.67550355 6.5505953e-39
0.68979526 -0.040874504 0.67632371 8.7243721e-39
0.69305068 -0.045427337 0.67484975 8.5407011e-39
0.44655955 -0.037404429 0.67497504 6.1814568e-39
0.45392579 -0.032520361 0.67402709 2.6755328e-39
0.68583155 -0.035166837 0.67502153 8.7243721e-39
0.45847034 -0.029095558 0.67652977 2.7659292e-39
0.4652319 -0.024278907 0.6749742 4.4286791e-39
0.47284603 -0.020309743 0.67449367 6.458764e-39
0.67766625 -0.023491461 0.67520308 8.7243721e-39
0.68133616 -0.028760003 0.67583013 8.7243721e-39
0.66875982 -0.012317734 0.67433506 8.7243721e-39
0.67276174 -0.016500218 0.67515117 8.7243721e-39
0.66485208 -0.004971676 0.67472512 8.7243721e-39
0.65723836 0.0062618307 0.67509913 8.7243721e-39
0.66072947 0.0011778394 0.67409223 8.7243721e-39
0.64854705 0.018562775 0.67472041 8.7243721e-39
0.65225416 0.01350697 0.67499799 8.7243721e-39
0.64408237 0.025132932 0.67538041 8.7243721e-39
0.63917911 0.036477126 0.67721868 9.5523321e-39
0.64139307 0.036187824 0.67359132 9.1835496e-39
0.46235991 0.049226344 0.67360461 4.3331946e-39
0.6394425 0.043061655 0.67340499 9.3675807e-39
0.6428721 0.045218717 0.6771037 9.8263981e-39
0.45188016 0.054787789 0.67552191 7.3806124e-39
0.64789522 0.050972112 0.67512667 8.8162076e-39
0.6560387 0.056550998 0.67539811 8.7247323e-39
0.45688552 0.062617958 0.67610687 8.3064685e-39
0.46277496 0.067911819 0.6752398 8.3064685e-39
0.66586936 0.06378866 0.67490506 8.7243721e-39
0.67398059 0.068458006 0.67384511 8.7243721e-39
0.46777186 0.071509816 0.67440635 8.3064685e-39
0.47429505 0.075647235 0.67491281 8.3064685e-39
0.48026419 0.079572566 0.67371702 8.3064685e-39
0.67813468 0.070427082 0.67197281 8.7243721e-39
0.68282902 0.071780682 0.67431825 8.7243721e-39
0.48527318 0.082894251 0.67527014 8.3064713e-39
0.49265307 0.08770375 0.67492336 9.8695385e-39
0.49826413 0.091425329 0.67520547 8.9500639e-39
0.504475 0.095463663 0.67495883 8.3064713e-39
0.51081336 0.099504538 0.67478049 8.3983068e-39
0.51593494 0.1026817 0.67569536 9.1337433e-39
0.52421212 0.10736415 0.67520297 8.6741874e-39
0.52957475 0.11022511 0.67334092 8.3064685e-39
0.53547269 0.11346588 0.67536646 8.3064685e-39
0.54191285 0.11689493 0.6739319 8.3064685e-39
0.60692561 0.13539694 0.67466313 6.1529923e-39
0.60588616 0.1450838 0.67482644 1.0134681e-38
0.6070081 0.15161896 0.67438936 1.1801041e-38
0.61210448 0.15521871 0.67549586 1.1801041e-38
0.44437775 0.19607112 0.67503649 1.179835e-38
0.45296085 0.19222449 0.67424446 1.3089445e-38
0.43702281 0.20555405 0.67532521 1.152177e-38
0.44035724 0.20055282 0.67401141 1.179835e-38
0.42888045 0.21800856 0.67572826 7.6532602e-39
0.43210322 0.21319771 0.67511183 6.9153603e-39
0.42660522 0.22508907 0.67496878 7.7461747e-39
0.42693919 0.23214987 0.67499483 8.2968262e-39
0.43287617 0.23759589 0.67354196 6.3614901e-39
0.43860376 0.24196798 0.67424631 7.0986781e-39
0.44218716 0.2445616 0.67456532 8.4808517e-39
0.26651892 0.5610472 0.67542088 4.1326169e-39
0.27507815 0.5610649 0.67494357 4.1326169e-39
0.28498158 0.5610854 0.6751318 4.1326169e-39
0.29492557 0.5611307 0.67508668 4.1326169e-39
0.30061826 0.56111771 0.67491174 4.1326169e-39
0.25920638 -0.55896825 0.68811107 1.1164145e-41
0.2651448 -0.55895597 0.68503922 1.1164145e-41
0.2750065 -0.55893564 0.68506068 1.1164145e-41
0.28510818 -0.55891472 0.68499899 1.1164145e-41
0.2950457 -0.5588941 0.68501431 1.1164145e-41
0.30031887 -0.55888319 0.68513685 1.1164145e-41
0.45391348 -0.4052735 0.68530035 6.2448278e-39
0.44750509 -0.39482623 0.68536192 6.2451865e-39
0.45352075 -0.39753219 0.68532175 7.9961678e-39
0.43981525 -0.38139486 0.68467289 6.9838207e-39
0.44230768 -0.38596198 0.68587095 6.9838207e-39
0.43568757 -0.37375471 0.68538606 8.9188345e-39
0.42920238 -0.36242253 0.68506813 1.0852056e-38
0.43169588 -0.36719209 0.68619406 1.0481839e-38
0.42492843 -0.35450995 0.68564868 1.0946766e-38
0.4186399 -0.34224623 0.68414527 1.104542e-38
0.42123914 -0.34724918 0.68448573 1.1135823e-38
0.4146435 -0.33481589 0.68554562 1.0860304e-38
0.40831774 -0.32274863 0.68426722 7.5351952e-39
0.41096425 -0.32775065 0.68465698 9.5645543e-39
0.40400696 -0.31483203 0.68543977 6.8901902e-39
0.39947972 -0.30216089 0.6828804 6.1529923e-39
0.40065089 -0.30579433 0.68526781 5.6938134e-39
0.63667655 -0.30067185 0.68162817 3.1365516e-39
0.64089322 -0.30335724 0.68197948 2.3064098e-39
0.39856315 -0.29480878 0.6847741 6.2448278e-39
0.40000117 -0.29991031 0.68644303 6.2448278e-39
0.6267221 -0.29246646 0.68527925 2.8599591e-39
0.6321516 -0.29723576 0.6841839 3.0443559e-39
0.39882553 -0.28840333 0.68802261 6.2448278e-39
0.40522161 -0.28414094 0.68508232 7.0749373e-39
0.41069731 -0.28057927 0.68512899 6.6154137e-39
0.61984086 -0.28075698 0.68430436 2.8599577e-39
0.62275714 -0.28584635 0.68544787 2.8599577e-39
0.41583332 -0.27782974 0.6856488 8.0041019e-39
0.42486459 -0.27382317 0.6857627 8.097378e-39
0.43319383 -0.27105874 0.68502808 6.9859955e-39
0.61691344 -0.27506155 0.68548107 6.3626349e-39
0.43807286 -0.26934919 0.68542033 7.3576605e-39
0.44417158 -0.26754594 0.68522513 6.708687e-39
0.60806686 -0.2621561 0.68623179 1.1708845e-38
0.61176425 -0.26679334 0.68499458 1.1248231e-38
0.59920973 -0.25114062 0.68441033 1.115531e-38
0.60315573 -0.25605252 0.68479043 1.1708845e-38
0.59444612 -0.24505803 0.6850428 1.0139354e-38
0.58678979 -0.23498115 0.68486458 8.1096085e-39
0.57774997 -0.2231416 0.68470728 8.2010768e-39
0.58179343 -0.22834614 0.68555152 8.7546136e-39
0.56815547 -0.21166308 0.68400139 1.0047157e-38
0.57270634 -0.21657856 0.68530875 1.0047157e-38
0.5588786 -0.20148119 0.68523276 1.1616649e-38
0.56337762 -0.20636021 0.68497646 1.1247505e-38
0.54966331 -0.19113111 0.68256778 2.8599577e-39
0.55332208 -0.19536501 0.68532908 7.192027e-39
0.54618216 -0.18506381 0.68617439 2.8599577e-39
0.53901404 -0.1728868 0.68667716 2.8599605e-39
0.54134852 -0.17677473 0.68799984 2.8599605e-39
0.53807962 -0.16526122 0.68555611 2.8599577e-39
0.54090559 -0.16055623 0.6853835 2.8599577e-39
0.54526925 -0.15755925 0.68606073 2.8599577e-39
0.55500776 -0.15250994 0.68436176 2.8599577e-39
0.55965221 -0.14969102 0.68877614 2.8599577e-39
0.56554419 -0.14864032 0.68511963 2.8599577e-39
0.57391781 -0.14701025 0.68478119 2.9521519e-39
0.44588906 -0.071395092 0.68402076 6.1792764e-39
0.45352668 -0.074476145 0.68099463 7.8409698e-39
0.43756452 -0.063699588 0.68479449 6.8224766e-39
0.44144377 -0.068379804 0.68563193 6.4536955e-39
0.70673919 -0.063258737 0.68633419 8.560147e-39
0.71189004 -0.067979783 0.68427247 9.2156001e-39
0.4341763 -0.055227228 0.68518841 7.1927053e-39
0.69846791 -0.053297315 0.68516588 8.918487e-39
0.70238209 -0.058058169 0.6857056 7.818982e-39
0.43747529 -0.046450738 0.68487173 6.6427909e-39
0.44144449 -0.041340481 0.68536305 7.195243e-39
0.68926996 -0.040490374 0.68448424 9.2840283e-39
0.69307876 -0.045939922 0.68511528 9.3776645e-39
0.44644663 -0.037614815 0.68487614 7.195243e-39
0.45328075 -0.032814588 0.68463296 3.9637367e-39
0.68543208 -0.035039321 0.68466967 9.2843885e-39
0.45865175 -0.028932821 0.68526965 2.6737363e-39
0.46459579 -0.0248107 0.68523866 5.0729611e-39
0.47170416 -0.020962458 0.68448454 7.9324423e-39
0.67729288 -0.023461539 0.68504673 5.9751128e-39
0.68105757 -0.028842116 0.68489093 7.0785639e-39
0.47573531 -0.019020727 0.68623477 8.2086677e-39
0.66866207 -0.011053148 0.68424898 6.250255e-39
0.67233026 -0.016336193 0.68522805 5.7003308e-39
0.66445792 -0.0050097615 0.68513221 5.4255488e-39
0.65739059 0.0056816894 0.68484396 1.0029516e-38
0.66081977 0.00046490738 0.68416864 7.2647558e-39
0.64857495 0.018587839 0.68485796 1.0124231e-38
0.65219295 0.0134442 0.68468648 1.0030595e-38
0.64367032 0.025392165 0.68521643 1.0402619e-38
0.63882524 0.033963583 0.68536425 1.0683528e-38
0.64130557 0.036707629 0.68488431 1.0770321e-38
0.4449288 0.048892111 0.68346024 5.6224915e-39
0.45636171 0.048711557 0.6896019 5.8083247e-39
0.64590806 0.045466781 0.68414629 1.0580529e-38
0.44992736 0.051630292 0.68147588 5.8083247e-39
0.45250335 0.054075789 0.68524766 6.9182119e-39
0.64929736 0.050629351 0.68280077 9.8375622e-39
0.65478688 0.055170424 0.68535471 9.1144025e-39
0.45761019 0.062063504 0.68477535 8.3064685e-39
0.46303147 0.067237437 0.68441695 8.3064685e-39
0.66569889 0.063475378 0.68525153 9.1158431e-39
0.67278981 0.06868495 0.68679726 1.0965158e-38
0.46860954 0.071777701 0.68400544 8.3064685e-39
0.47558567 0.076431647 0.68463677 8.3064685e-39
0.67678064 0.071547449 0.68864286 1.1615207e-38
0.48555717 0.083043016 0.6847567 8.5823491e-39
0.49269637 0.087896317 0.68526846 9.7776988e-39
0.49750665 0.091086708 0.68512022 8.3983096e-39
0.5049625 0.095809214 0.68526167 8.3064685e-39
0.5100199 0.098973915 0.68240082 8.3983068e-39
0.51546788 0.10238427 0.685067 8.4901479e-39
0.52410918 0.10745193 0.6851303 8.3064685e-39
0.53449762 0.11314467 0.68574673 8.3064685e-39
0.54313463 0.11724797 0.68537802 1.0151792e-38
0.60710216 0.13568819 0.68497801 6.2451879e-39
0.60547668 0.14493822 0.68535668 1.078221e-38
0.60755253 0.15189572 0.68430823 1.1801041e-38
0.61284482 0.15535519 0.68607521 1.1801041e-38
0.45462042 0.18992145 0.68973416 1.1799089e-38
0.44514629 0.1956635 0.68512082 1.2167127e-38
0.45216641 0.19064224 0.68709391 1.1983107e-38
0.43743724 0.20557509 0.68514377 1.179835e-38
0.44051012 0.20076425 0.68458879 1.179835e-38
0.4289867 0.21818589 0.68432641 4.9943651e-39
0.43241796 0.21306048 0.68463248 8.1203158e-39
0.42626303 0.22424003 0.68481696 7.3820613e-39
0.42817768 0.23244391 0.68444544 7.0064923e-39
0.43258122 0.23780499 0.68538666 6.3611271e-39
0.43697029 0.24114057 0.68933278 5.9001476e-39
0.25916985 0.56103188 0.68795204 4.1326169e-39
0.26495394 0.56104386 0.68507153 4.1326169e-39
0.2749097 0.56106448 0.68502545 4.1326169e-39
0.28483921 0.56108499 0.68505585 4.1326169e-39
0.29482597 0.56110567 0.68499207 4.1326169e-39
0.30052575 0.56111741 0.68414456 4.1326169e-39
0.27833635 -0.56134862 0.69949687 1.1164145e-41
0.25775832 -0.55897111 0.6959126 1.1164145e-41
0.26496539 -0.55895615 0.6950292 1.1164145e-41
0.27502474 -0.55893534 0.69509155 1.1164145e-41
0.28498614 -0.55891478 0.69494277 1.1164145e-41
0.2949509 -0.5588941 0.69502836 1.1164145e-41
0.30029383 -0.55888301 0.69500822 1.1164145e-41
0.45850343 -0.41195565 0.69401813 6.2448278e-39
0.4603368 -0.41456538 0.69633007 6.2448278e-39
0.45358968 -0.40445805 0.69500953 6.2448278e-39
0.44733226 -0.39500335 0.69547123 6.4292176e-39
0.43833375 -0.38081563 0.69880873 9.3769358e-39
0.44157863 -0.38596144 0.69445115 7.7220962e-39
0.43543607 -0.37515846 0.69496661 9.8371923e-39
0.42843139 -0.36280939 0.69555086 1.0852056e-38
0.43150914 -0.36816812 0.69480968 1.0482199e-38
0.42445892 -0.35526192 0.69460118 1.0947126e-38
0.41806188 -0.34292635 0.69541031 1.1046135e-38
0.42087406 -0.34836754 0.69512898 1.1136899e-38
0.4139514 -0.33488467 0.69548297 1.0674838e-38
0.40812251 -0.32362342 0.69541383 8.8255627e-39
0.41094199 -0.3287676 0.69373924 1.0023735e-38
0.40346605 -0.31479123 0.69503033 6.7976372e-39
0.39859867 -0.30271402 0.69491941 6.2448278e-39
0.40039131 -0.30675367 0.69413126 6.1529923e-39
0.39863098 -0.2947143 0.69441807 6.2448278e-39
0.62766784 -0.29213062 0.69479209 2.8599577e-39
0.63262546 -0.29732016 0.69618231 2.7677621e-39
0.39873004 -0.2884202 0.69494885 6.2448278e-39
0.40468457 -0.2842865 0.69529015 7.1674917e-39
0.41132841 -0.28145579 0.69426578 7.3562158e-39
0.6235835 -0.28504401 0.69509089 2.8599577e-39
0.41552287 -0.27796623 0.6949631 7.6338803e-39
0.42428562 -0.27311495 0.69564629 8.6527111e-39
0.43237653 -0.27072415 0.69262624 9.8573752e-39
0.61750036 -0.27480304 0.69443458 4.1503224e-39
0.62054396 -0.27965963 0.69727665 2.8599577e-39
0.43623418 -0.2692526 0.69548839 8.1902953e-39
0.4439736 -0.26803011 0.69459087 6.7058073e-39
0.60888118 -0.26180989 0.6953091 1.1708846e-38
0.61252999 -0.26680559 0.69520301 1.1616651e-38
0.60361731 -0.25506625 0.6950081 1.1708845e-38
0.59573764 -0.24487984 0.69530642 1.1708845e-38
0.58715272 -0.23395112 0.6947248 1.1708845e-38
0.59117311 -0.23904419 0.6952244 1.1801041e-38
0.5782516 -0.22260192 0.6945473 1.1708845e-38
0.58199555 -0.22728166 0.69525158 1.1708845e-38
0.5690878 -0.21089737 0.69516587 1.1063483e-38
0.57324499 -0.21617398 0.69523168 1.1616649e-38
0.56413031 -0.20505947 0.69491005 1.0141896e-38
0.55495948 -0.19486938 0.69483614 4.242518e-39
0.5473851 -0.18456282 0.69495195 2.8599605e-39
0.55068105 -0.18951289 0.69642085 2.8599577e-39
0.53984058 -0.17090121 0.69411588 2.9521561e-39
0.54284585 -0.17590062 0.6932593 2.9521575e-39
0.53906429 -0.16550034 0.6943568 2.8599591e-39
0.54109913 -0.16302438 0.69401574 2.8599591e-39
0.54612362 -0.15687993 0.69449216 2.8599577e-39
0.55347008 -0.15171334 0.69474447 2.8599577e-39
0.56854284 -0.15554395 0.69152027 4.1503224e-39
0.55906171 -0.14989413 0.69829828 2.8599577e-39
0.56510365 -0.14823295 0.69524741 2.8599577e-39
0.57391942 -0.14615105 0.6948427 2.8599577e-39
0.44781262 -0.071958877 0.69502246 7.6562156e-39
0.45227918 -0.073946327 0.69650012 7.7491385e-39
0.71343112 -0.072791405 0.69423753 1.6503015e-38
0.43777943 -0.062641241 0.69475663 7.8369887e-39
0.44218719 -0.068048015 0.69519615 8.2061327e-39
0.70771253 -0.062102128 0.69403833 1.2814109e-38
0.7135095 -0.066130392 0.69603121 1.2262375e-38
0.43475473 -0.055019014 0.69474739 7.6533219e-39
0.69796515 -0.052023601 0.69544494 1.2445687e-38
0.70259279 -0.056793906 0.69537711 1.3183614e-38
0.43777442 -0.046570603 0.69522387 5.9963383e-39
0.44130751 -0.041752994 0.69531459 6.0896185e-39
0.68913108 -0.040090606 0.69341475 1.1616285e-38
0.69329208 -0.045458343 0.69542193 1.2169459e-38
0.4462254 -0.038023483 0.69509637 6.0892584e-39
0.45391265 -0.032642681 0.69527328 5.4438946e-39
0.68580186 -0.034682501 0.69547319 1.2353493e-38
0.69029319 -0.038998246 0.69968873 1.4382151e-38
0.45905933 -0.02911498 0.69573057 5.6279243e-39
0.46456498 -0.025242515 0.69511002 5.7204801e-39
0.47105312 -0.020911586 0.69669509 6.0892556e-39
0.67760515 -0.023323178 0.69480354 2.8595989e-39
0.68166673 -0.028139457 0.69680965 6.3626475e-39
0.69451815 -0.02651369 0.69907224 1.0681367e-38
0.71799183 -0.026291948 0.69988143 1.5396669e-38
0.47555014 -0.019296685 0.69417274 6.6427923e-39
0.66948211 -0.012289289 0.6932804 2.8599591e-39
0.67305332 -0.015697988 0.69626766 2.8599591e-39
0.66577196 -0.005394958 0.69557524 3.136546e-39
0.65783262 0.006606041 0.69483006 1.0879083e-38
0.66145176 0.0017818343 0.69642973 9.0355571e-39
0.64910394 0.018890368 0.69347924 1.0878721e-38
0.65292168 0.014292176 0.69576883 1.05103e-38
0.6456185 0.025297856 0.6950345 1.0233714e-38
0.63908565 0.03690346 0.69313794 1.1247865e-38
0.64150715 0.034237191 0.69648623 9.864931e-39
0.4545567 0.049256451 0.69500494 6.1771072e-39
0.64529765 0.045333266 0.69568431 1.1524089e-38
0.65068978 0.046759114 0.69891298 1.068893e-38
0.44999793 0.052732628 0.69441634 6.0856192e-39
0.45187271 0.055170886 0.69572794 7.6579083e-39
0.64939415 0.050847352 0.69275045 1.0233712e-38
0.65538692 0.054859847 0.69555426 9.0351717e-39
0.66137272 0.058704849 0.69734401 8.9429761e-39
0.45668921 0.062743388 0.69468737 8.3061098e-39
0.46217117 0.067801759 0.69506025 8.3064685e-39
0.66595674 0.062666446 0.69468415 9.3117586e-39
0.67487288 0.067311563 0.69520992 1.2354213e-38
0.68282354 0.069732659 0.69736606 1.3368005e-38
0.46741638 0.071386553 0.69450444 8.3064685e-39
0.47460505 0.076133199 0.69502383 8.3064685e-39
0.48031968 0.079932511 0.69695365 8.3064685e-39
0.67553192 0.072071455 0.6907441 1.20661e-38
0.68478858 0.071613796 0.69536179 1.3736786e-38
0.48492157 0.082882419 0.69446093 8.3064699e-39
0.49284491 0.088101402 0.69529146 8.3983068e-39
0.49807349 0.091458321 0.6941759 8.3064685e-39
0.5046289 0.095639393 0.69488937 8.3064685e-39
0.51120549 0.099707872 0.69604594 8.3064685e-39
0.51603937 0.1026524 0.69474053 8.3064685e-39
0.52480292 0.10767712 0.69490331 8.5819736e-39
0.63558227 0.10644597 0.69788384 1.2354936e-38
0.52960271 0.11033013 0.69379431 8.4901381e-39
0.53462821 0.11288516 0.69368231 9.3202463e-39
0.5411225 0.11450712 0.69119108 1.1997835e-38
0.60757858 0.13490647 0.69495463 1.078257e-38
0.6058175 0.14466591 0.695472 1.1708845e-38
0.6070379 0.15170266 0.69592875 1.1801041e-38
0.6128462 0.15557054 0.6970827 1.1801041e-38
0.45420921 0.189733 0.69553399 1.1890914e-38
0.44420272 0.19607402 0.69492221 1.179835e-38
0.45249924 0.19121371 0.69269532 1.1798709e-38
0.43682492 0.20545548 0.69528258 1.179835e-38
0.44225183 0.20316617 0.6920352 1.1247348e-38
0.42817634 0.21757798 0.69541168 5.0861991e-39
0.43164545 0.2128911 0.69447452 9.1319272e-39
0.42536309 0.22472498 0.69522661 8.761365e-39
0.42849606 0.23333661 0.69446576 5.9001448e-39
0.43295074 0.23802869 0.69538736 5.2551467e-39
0.43851116 0.24210441 0.69334376 6.2689203e-39
0.4407056 0.24315602 0.6975739 7.0986655e-39
0.2937085 0.55760032 0.69549882 4.1326169e-39
0.25769114 0.56102872 0.69573301 4.1326169e-39
0.26483881 0.56104344 0.69504577 4.1326169e-39
0.27491504 0.5610643 0.69503671 4.1326169e-39
0.28488621 0.56108499 0.69506276 4.1326169e-39
0.2949 0.56110561 0.69492429 4.1326169e-39
0.3006444 0.56111753 0.69499493 4.1326169e-39
0.26863179 -0.56808376 0.70040339 1.1164145e-41
0.29456761 -0.56372011 0.70281428 1.1164145e-41
0.25605115 -0.55897444 0.70540345 1.1164145e-41
0.26486409 -0.55895627 0.70504326 1.1164145e-41
0.27492407 -0.55893534 0.70511246 1.1164145e-41
0.28501093 -0.55891454 0.70504546 1.1164145e-41
0.29497105 -0.55889386 0.70493937 1.1164145e-41
0.30020916 -0.55888301 0.70528895 1.1164145e-41
0.46485889 -0.42090294 0.70345724 6.2448278e-39
0.45851037 -0.41134089 0.70295477 6.2448278e-39
0.46216276 -0.41676408 0.70435917 6.2448278e-39
0.45646858 -0.40839079 0.70100343 6.2448278e-39
0.44570142 -0.39398864 0.70729125 6.9838221e-39
0.43862826 -0.38210028 0.70537424 9.567071e-39
0.44154492 -0.38694903 0.70477128 8.645842e-39
0.43489811 -0.37545645 0.70475972 9.6560324e-39
0.42792314 -0.36319992 0.70632946 1.0852775e-38
0.43095979 -0.36839962 0.70430493 1.0482916e-38
0.42370871 -0.35509709 0.70465446 1.1040398e-38
0.41801614 -0.34413967 0.70486957 1.113797e-38
0.42021921 -0.34873432 0.7078712 1.1137617e-38
0.41314188 -0.33467576 0.70518136 1.0954655e-38
0.40759817 -0.32394752 0.70499933 9.7568502e-39
0.4101235 -0.32910794 0.7068758 1.1050086e-38
0.40298551 -0.31500062 0.70586479 6.8923482e-39
0.39858514 -0.30486572 0.70574546 6.3373849e-39
0.40029576 -0.30928537 0.70703459 6.2448292e-39
0.63706005 -0.30085889 0.70243406 2.8599563e-39
0.39700884 -0.29320699 0.7057969 6.2448278e-39
0.62846935 -0.29138058 0.70373535 2.8603164e-39
0.63341272 -0.29645687 0.70500678 2.8599577e-39
0.39911532 -0.28956246 0.70129633 6.2448278e-39
0.40504721 -0.28545737 0.70497543 6.9827417e-39
0.41095415 -0.28061083 0.70490307 6.2448292e-39
0.62440664 -0.28510609 0.70528156 2.8606765e-39
0.40503567 -0.27445725 0.70920461 6.3373821e-39
0.41600192 -0.27765828 0.70465326 7.8197135e-39
0.42508036 -0.27260607 0.70496756 7.5409644e-39
0.44964349 -0.27162033 0.70011079 9.1835706e-39
0.61760408 -0.27394351 0.70489085 3.4142035e-39
0.62063277 -0.2790159 0.70456827 2.8610353e-39
0.43338728 -0.26812184 0.7061913 6.2448278e-39
0.4424586 -0.2671445 0.70382011 7.0727906e-39
0.60948396 -0.26086134 0.70363045 1.1708846e-38
0.61274797 -0.26577491 0.70538187 1.051283e-38
0.60523033 -0.25491202 0.70513386 1.0881251e-38
0.5966568 -0.2437644 0.70500571 1.0973086e-38
0.60052919 -0.24899314 0.70406067 1.1341146e-38
0.58802664 -0.23306061 0.7046048 1.1157116e-38
0.59221381 -0.23808752 0.705127 1.106528e-38
0.57830167 -0.22128387 0.70399171 1.143298e-38
0.58275455 -0.22593582 0.70521945 1.069722e-38
0.56973302 -0.21065675 0.70368648 3.9659339e-39
0.57416642 -0.21546422 0.70548666 9.0369976e-39
0.56551564 -0.20504099 0.70525533 3.4138433e-39
0.55650252 -0.1941026 0.70459378 2.8599577e-39
0.56089884 -0.19913888 0.70590681 2.8603164e-39
0.548154 -0.1826859 0.7040717 2.8599577e-39
0.55190384 -0.18693171 0.70618767 2.8599577e-39
0.53938359 -0.17111376 0.70221412 2.9517946e-39
0.54389673 -0.17530094 0.70567709 2.8599577e-39
0.53951192 -0.16738951 0.70254236 2.8599577e-39
0.54081261 -0.16388838 0.70572996 2.8599577e-39
0.54459471 -0.15612751 0.70537674 2.8599577e-39
0.55498207 -0.15177119 0.70485502 2.8599577e-39
0.56532323 -0.14854921 0.70415658 2.8599577e-39
0.57479823 -0.1459913 0.70445836 2.8599577e-39
0.58053529 -0.14521828 0.70909482 2.8599577e-39
0.44950402 -0.071000233 0.70160532 6.8250116e-39
0.45382106 -0.071877085 0.70324814 5.8029031e-39
0.43863845 -0.062183362 0.70245486 5.9001588e-39
0.44460276 -0.065423243 0.70614409 5.2479202e-39
0.45474851 -0.068424724 0.70803195 5.796757e-39
0.46403304 -0.063816532 0.70873064 6.4406816e-39
0.47264701 -0.06193528 0.70445323 6.2577365e-39
0.70916289 -0.060148455 0.70072508 1.2815193e-38
0.71483022 -0.062255051 0.70310992 1.2353851e-38
0.72200519 -0.061352473 0.70392561 1.7884506e-38
0.43725237 -0.05434709 0.70422018 5.0656968e-39
0.44147027 -0.055848345 0.70862657 4.7847728e-39
0.47513807 -0.057746157 0.70833105 6.1648164e-39
0.48362723 -0.052288447 0.70850813 6.4410404e-39
0.69950378 -0.051677797 0.70036232 1.4289962e-38
0.70559812 -0.054164976 0.70357949 1.4382514e-38
0.71475315 -0.054756306 0.7069394 1.7424971e-38
0.72473562 -0.053879466 0.70650047 1.576509e-38
0.73140633 -0.051353231 0.70648539 1.5581061e-38
0.43829647 -0.04703008 0.70392597 4.1426572e-39
0.44373211 -0.043663412 0.70677137 4.601469e-39
0.45297861 -0.041351669 0.70663881 6.0802116e-39
0.48966634 -0.049184687 0.7061162 6.7169056e-39
0.4918682 -0.044479646 0.70735812 6.7169056e-39
0.6968857 -0.044629216 0.7019788 1.4474352e-38
0.70535809 -0.044763777 0.70445484 1.8530956e-38
0.71542078 -0.045210656 0.70573974 1.5673257e-38
0.72512794 -0.045049258 0.70610672 1.4935692e-38
0.73476195 -0.044250794 0.70641398 1.5673257e-38
0.74424332 -0.042877089 0.7046603 1.7332415e-38
0.75378203 -0.041867144 0.70172966 1.8438763e-38
0.44795683 -0.038598556 0.70401889 4.4203287e-39
0.45507646 -0.034910861 0.70567977 4.5107181e-39
0.46238893 -0.031575214 0.70828068 4.6925786e-39
0.49170187 -0.036654368 0.70945746 6.6250701e-39
0.68841648 -0.032746874 0.70157969 1.2815198e-38
0.69472772 -0.035408113 0.70333058 1.7056189e-38
0.7052477 -0.035303276 0.7049908 1.6779603e-38
0.71575385 -0.034626856 0.70541865 1.4935692e-38
0.72532129 -0.035007153 0.70609879 1.5027888e-38
0.73536867 -0.035231285 0.70630008 1.7793395e-38
0.74539077 -0.034639258 0.70657516 1.889974e-38
0.75402158 -0.034458715 0.70480728 1.8069616e-38
0.46613133 -0.026557216 0.70505232 4.4192455e-39
0.47450596 -0.023201823 0.70624435 4.9698872e-39
0.4835164 -0.024071263 0.70741808 5.5219777e-39
0.67873067 -0.020865554 0.70072812 3.3209512e-39
0.68509638 -0.024276208 0.70295376 7.4697448e-39
0.69494331 -0.025286134 0.7052474 1.668778e-38
0.70536798 -0.025397686 0.7056725 1.539667e-38
0.71563572 -0.024886336 0.70553291 1.5120083e-38
0.72562778 -0.025229326 0.70580822 1.6779602e-38
0.73535776 -0.024655098 0.70646936 1.9084491e-38
0.74472487 -0.025593754 0.70698482 1.889974e-38
0.75180167 -0.027344108 0.70642394 1.8623153e-38
0.47705251 -0.01955054 0.70048738 5.6224915e-39
0.67669821 -0.014190426 0.70259458 3.8748621e-39
0.68483734 -0.015231938 0.70528507 4.5202539e-39
0.69473761 -0.014550845 0.70632595 6.2715996e-39
0.70486945 -0.014838238 0.70615983 1.2723758e-38
0.71525365 -0.015135349 0.70590091 1.5857648e-38
0.72532254 -0.015411994 0.7060976 1.9084493e-38
0.73426163 -0.015039038 0.70708531 1.9360719e-38
0.74408835 -0.015688963 0.70408338 1.7332051e-38
0.66834682 -0.0028191188 0.7012983 3.8744992e-39
0.67443156 -0.0057567162 0.70442408 4.0588988e-39
0.68450171 -0.0054363045 0.70659363 4.8890477e-39
0.69455159 -0.0049700486 0.70651037 4.8890463e-39
0.70466816 -0.0051818127 0.70635605 5.3500188e-39
0.71484518 -0.0045096478 0.70629406 1.0972806e-38
0.72470433 -0.0046993117 0.70668429 1.8900113e-38
0.73356754 -0.0054176231 0.70642477 1.7701579e-38
0.74055862 -0.0041842572 0.70283806 1.4751706e-38
0.65931284 0.0092482697 0.7007544 1.097128e-38
0.66566128 0.0052256691 0.7035982 9.3121636e-39
0.67504495 0.0046865731 0.70630234 4.7050095e-39
0.68478853 0.0047298106 0.70646495 4.889405e-39
0.69462401 0.0045980946 0.70643896 4.8890477e-39
0.7046594 0.0044635413 0.70636433 4.8894064e-39
0.71482158 0.0052113729 0.70631659 4.8890449e-39
0.72448909 0.0047937823 0.70647979 8.2076952e-39
0.73184747 0.0037889024 0.70525151 1.0051229e-38
0.65657973 0.016001295 0.70259929 1.3644952e-38
0.66475439 0.01478136 0.70512646 1.6503029e-38
0.67486274 0.015386025 0.70586097 9.3136448e-39
0.68510628 0.015088771 0.70614505 4.8894036e-39
0.69470096 0.015038635 0.70636225 4.8890449e-39
0.70462257 0.014985659 0.70640039 4.8894064e-39
0.71488005 0.014930487 0.70626074 4.8890477e-39
0.72303391 0.013006244 0.70595169 4.9812447e-39
0.64788502 0.026808424 0.70181495 1.4198124e-38
0.65531862 0.025246358 0.70350796 1.6779605e-38
0.66451436 0.025403455 0.70514721 1.4843496e-38
0.67470926 0.02542947 0.70566905 1.5027889e-38
0.68528801 0.025456831 0.70596212 1.1617783e-38
0.6946438 0.025480287 0.70641857 6.1794081e-39
0.70448905 0.025506208 0.70653081 4.9812433e-39
0.71350288 0.024411278 0.70619625 5.81099e-39
0.64537179 0.035912674 0.70302314 1.576545e-38
0.65501022 0.035256065 0.70482546 1.5673257e-38
0.66448349 0.035613287 0.70517999 1.5027888e-38
0.67455941 0.035239324 0.70555031 1.5120083e-38
0.68537003 0.034964189 0.70587945 1.7148384e-38
0.69485056 0.035056401 0.70621449 1.7793773e-38
0.70436293 0.034844413 0.7060051 1.097244e-38
0.71230048 0.033484522 0.70383388 1.6779257e-38
0.45493546 0.047904212 0.7038334 7.0075741e-39
0.647084 0.043027218 0.70229459 1.410557e-38
0.65488833 0.046090286 0.70375711 1.4198127e-38
0.66538483 0.045128822 0.70526713 1.4751301e-38
0.67558581 0.044372719 0.70589352 1.6226069e-38
0.68537116 0.044471413 0.70587963 1.9637303e-38
0.69551885 0.044341281 0.70521724 1.9637298e-38
0.70369917 0.043947011 0.70361829 1.9084132e-38
0.45370066 0.055545427 0.70328689 8.4894402e-39
0.65743423 0.052637652 0.7015062 1.1616649e-38
0.66538262 0.054489803 0.70373988 1.2815193e-38
0.67493457 0.0550492 0.70666015 1.705619e-38
0.68490267 0.054497682 0.70668465 2.0282313e-38
0.69425768 0.054219171 0.70482093 2.0282671e-38
0.70015979 0.054427586 0.70217991 2.0375231e-38
0.45564407 0.063298978 0.70480168 8.490857e-39
0.46217886 0.068108991 0.70547009 8.3064685e-39
0.66786474 0.061056662 0.70166177 1.0325911e-38
0.67539704 0.063051745 0.70462787 1.4382518e-38
0.68532866 0.065340564 0.70465493 1.6871799e-38
0.69094872 0.063382931 0.70559579 1.8900103e-38
0.46761179 0.071699552 0.70437795 8.3064685e-39
0.47547778 0.076910637 0.70547819 8.3064685e-39
0.48543021 0.083420821 0.70486301 8.3064685e-39
0.49297705 0.088300146 0.7051689 8.3064685e-39
0.49793068 0.091471955 0.70480055 8.3983026e-39
0.50519615 0.09598539 0.70516473 8.6738091e-39
0.51029241 0.099164836 0.70356774 8.5819736e-39
0.51582718 0.10247941 0.7047646 8.7634936e-39
0.52480972 0.10748776 0.70516437 8.6680974e-39
0.63566214 0.10844811 0.70436966 1.521264e-38
0.64154273 0.10966754 0.70616817 1.6410822e-38
0.53495044 0.11305749 0.70424628 8.1149376e-39
0.54253238 0.11698934 0.70763993 8.3972334e-39
0.63537651 0.11069957 0.70916176 1.6503739e-38
0.64299798 0.11463985 0.70827049 2.0098647e-38
0.60845655 0.13592488 0.70509142 1.1985432e-38
0.6106115 0.13156731 0.70777565 1.1801041e-38
0.6077379 0.14508294 0.70480829 1.2722997e-38
0.6107136 0.14837047 0.70896983 1.3737149e-38
0.60843903 0.15162535 0.70236129 1.2999584e-38
0.61375391 0.15327239 0.70574665 1.3737149e-38
0.44881046 0.18979697 0.70395929 1.207569e-38
0.45369688 0.18948129 0.7059688 1.2167148e-38
0.43907627 0.19932544 0.70720315 1.1781511e-38
0.44314337 0.19443272 0.70531708 1.1788676e-38
0.43550506 0.20500354 0.70497853 1.178975e-38
0.42797676 0.21611737 0.70532942 1.0510876e-38
0.43117076 0.2111662 0.70524174 1.1797991e-38
0.42492467 0.2245094 0.70521033 1.0232145e-38
0.42752197 0.23240928 0.70502311 5.2551397e-39
0.43265644 0.23762585 0.70667082 5.1629497e-39
0.43611977 0.24011542 0.70108986 4.8867257e-39
0.24639189 0.56342304 0.70317543 4.1326169e-39
0.25607905 0.5610252 0.70546013 4.1326169e-39
0.26501355 0.5610438 0.70510817 4.1326169e-39
0.27503961 0.56106442 0.70502245 4.1326169e-39
0.28493115 0.56108493 0.70501703 4.1326169e-39
0.29496428 0.56110561 0.70500767 4.1326169e-39
0.30053166 0.56111723 0.70453054 4.1326169e-39
0.24957888 -0.55898762 0.71538717 1.1164145e-41
0.25515345 -0.55897611 0.71477813 1.1164145e-41
0.26502043 -0.55895567 0.71509641 1.1164145e-41
0.27503443 -0.55893493 0.71504593 1.1164145e-41
0.2849223 -0.55891448 0.71506339 1.1164145e-41
0.29496691 -0.55889362 0.71499693 1.1164145e-41
0.30032283 -0.55888259 0.71490914 1.1164145e-41
0.46674794 -0.42326587 0.71378464 6.2448278e-39
0.45908624 -0.41308773 0.71586734 6.2448278e-39
0.46231982 -0.41719899 0.71600372 6.2448278e-39
0.44948244 -0.40135384 0.71797472 6.2448278e-39
0.44620186 -0.39557931 0.71398801 6.7990763e-39
0.438014 -0.38359085 0.71488905 7.2622027e-39
0.44158465 -0.38806671 0.71521288 7.8168114e-39
0.43369564 -0.37464663 0.71511155 8.4582207e-39
0.4278914 -0.36410046 0.71535796 1.085385e-38
0.43020791 -0.36879605 0.71816438 1.0667666e-38
0.42318463 -0.3550649 0.71463352 1.0949997e-38
0.41777769 -0.34469005 0.71529549 1.0858875e-38
0.42042845 -0.34978396 0.71513247 1.113726e-38
0.41279715 -0.33502203 0.71538937 9.0139028e-39
0.40756044 -0.32474321 0.7150659 8.2749099e-39
0.40274778 -0.31446022 0.71563184 6.3373821e-39
0.41125715 -0.31131223 0.7196613 6.1529923e-39
0.39852959 -0.30366236 0.71498132 6.2448278e-39
0.4004676 -0.30843619 0.71657771 6.2448278e-39
0.63803113 -0.30038136 0.71237266 1.937616e-39
0.39629704 -0.29459226 0.71505785 6.2448278e-39
0.40003985 -0.29036427 0.71006799 6.2448292e-39
0.62882203 -0.29028273 0.71019363 2.8664247e-39
0.6338312 -0.29496768 0.71513146 2.6827481e-39
0.3987287 -0.28935733 0.7183072 6.6139648e-39
0.405076 -0.2855472 0.71462405 7.0760205e-39
0.4112854 -0.28090668 0.7136063 9.4867934e-39
0.62583357 -0.28485623 0.71488094 2.7871658e-39
0.41615921 -0.27755964 0.7148937 8.8389045e-39
0.42487001 -0.27265358 0.71456987 8.4676024e-39
0.61842638 -0.27340835 0.71432221 2.7878833e-39
0.6215328 -0.27816892 0.71573538 2.7889623e-39
0.43446964 -0.26733416 0.71550936 7.6346005e-39
0.61341697 -0.26506975 0.71499991 3.1573805e-39
0.62383467 -0.26913363 0.71262598 4.7968478e-39
0.60653311 -0.25502491 0.71498054 3.3417717e-39
0.61034751 -0.25897318 0.71555144 2.7882434e-39
0.59736711 -0.24281585 0.71500069 3.5258015e-39
0.60151809 -0.24807273 0.71470523 3.7098312e-39
0.58862329 -0.23194353 0.71472096 3.9856964e-39
0.59256929 -0.23680903 0.71512067 3.433966e-39
0.57890332 -0.22036526 0.71224582 5.456858e-39
0.5832864 -0.22525707 0.71531361 3.7098312e-39
0.57484519 -0.21491727 0.7149232 3.4318094e-39
0.56673014 -0.2048566 0.7151438 2.7860882e-39
0.57132733 -0.20976284 0.71881551 2.7904e-39
0.55716473 -0.19333005 0.71486264 2.7846505e-39
0.56140316 -0.19840564 0.71505016 2.7853694e-39
0.54926413 -0.18164109 0.71583992 2.7842918e-39
0.55233359 -0.18665835 0.71517712 2.7850092e-39
0.54625851 -0.17464297 0.71281993 2.8678624e-39
0.5422594 -0.16433498 0.71450198 2.8631933e-39
0.54638565 -0.15620913 0.71402979 3.0439944e-39
0.55181885 -0.1519139 0.71639532 3.0439944e-39
0.54645395 -0.14681812 0.71199131 2.8599577e-39
0.55632293 -0.14925988 0.71593225 2.8599591e-39
0.56523544 -0.14721292 0.71525866 2.8599577e-39
0.57517785 -0.14614552 0.71479219 2.8599577e-39
0.58163184 -0.14553398 0.71508044 2.8599577e-39
0.44800365 -0.061638892 0.71142644 5.0606381e-39
0.4543528 -0.063275911 0.71187109 6.2566519e-39
0.46270743 -0.06112399 0.71095794 6.5328759e-39
0.44605446 -0.054314367 0.71218646 5.520533e-39
0.4547253 -0.054828543 0.7139504 6.2566519e-39
0.46464491 -0.054657735 0.71323878 6.5328759e-39
0.47396156 -0.053308267 0.71187794 6.4406816e-39
0.48091686 -0.051216848 0.71114618 6.5328759e-39
0.44733754 -0.046683393 0.71155131 5.2446678e-39
0.45499852 -0.045108322 0.71315432 5.796757e-39
0.46463007 -0.044793852 0.71431983 6.2566519e-39
0.47460997 -0.044859551 0.71406466 6.4406816e-39
0.48395813 -0.044181082 0.71283507 6.7165469e-39
0.69639218 -0.047075991 0.71002197 1.7516807e-38
0.45698115 -0.038779553 0.71111989 5.2446678e-39
0.46549407 -0.035622671 0.71214992 5.7045627e-39
0.47476396 -0.034721706 0.71363807 6.0726222e-39
0.48423088 -0.03548174 0.71320617 6.5325171e-39
0.46934378 -0.028947271 0.71057922 5.4286975e-39
0.47578883 -0.027836993 0.71163625 5.4286975e-39
0.48315227 -0.02794555 0.71104747 6.3488461e-39
0.72408533 -0.026687434 0.71243393 1.7148386e-38
0.74747729 -0.017106839 0.71231514 7.3775786e-39
0.67181134 -0.0018043136 0.71042484 9.9586386e-39
0.6971218 0.038257055 0.71126354 8.7243721e-39
0.45456958 0.048523519 0.71422493 6.730281e-39
0.46040243 0.048310727 0.71140862 7.467846e-39
0.45240906 0.055215165 0.71535563 7.1962211e-39
0.45585433 0.062909693 0.71473455 8.3064685e-39
0.46346822 0.068223156 0.71470833 8.3064685e-39
0.46813115 0.071274325 0.71483499 8.3064671e-39
0.47436678 0.075792849 0.71499515 8.3983026e-39
0.48462567 0.083133467 0.71524811 8.7649271e-39
0.49261522 0.088247918 0.71504503 8.4861948e-39
0.49682969 0.091403805 0.71387798 8.7624286e-39
0.50541127 0.096005753 0.71480387 9.0358205e-39
0.51174217 0.09984985 0.71761483 1.0971269e-38
0.51525754 0.10197143 0.71428609 9.6801488e-39
0.5237875 0.10686576 0.71510667 1.0325904e-38
0.52951479 0.11014684 0.71739864 8.7589436e-39
0.53490663 0.11325744 0.71456712 8.3926343e-39
0.54297537 0.11740034 0.71602684 6.3671611e-39
0.63519514 0.1135736 0.71195972 1.89923e-38
0.64018685 0.11588576 0.71127653 1.9453637e-38
0.61306643 0.12986025 0.71422148 1.1893236e-38
0.61249995 0.13542867 0.71484965 1.1985432e-38
0.61472386 0.14485833 0.71359169 1.5027886e-38
0.62217396 0.1466081 0.71672577 1.4474714e-38
0.61882323 0.15101056 0.71146643 1.5673257e-38
0.62224144 0.15044576 0.71254587 1.5857648e-38
0.45460573 0.18976805 0.71515721 1.2627739e-38
0.43938056 0.19892803 0.71315873 1.177757e-38
0.44436547 0.19390121 0.71570039 1.3442082e-38
0.45218071 0.1908953 0.71760064 1.5300297e-38
0.43556926 0.20497967 0.71548867 1.1783303e-38
0.44037026 0.20002073 0.71959805 1.214599e-38
0.42771381 0.21640094 0.71552914 1.179835e-38
0.43098047 0.21167265 0.71615565 1.1890544e-38
0.42555806 0.22470886 0.71520925 1.0416174e-38
0.4282876 0.23222446 0.71348608 6.4536759e-39
0.43286172 0.23645255 0.71608776 7.9276891e-39
0.43896067 0.24162716 0.71431613 7.9276793e-39
0.44350815 0.24410532 0.71722031 1.0415814e-38
0.24907266 0.5610106 0.71749181 4.1326169e-39
0.25497159 0.56102276 0.71505874 4.1326169e-39
0.26488957 0.56104332 0.71502966 4.1326169e-39
0.2748946 0.56106406 0.71491617 4.1326169e-39
0.28492105 0.56108475 0.7150141 4.1326169e-39
0.29489523 0.56110543 0.71505344 4.1326169e-39
0.30064783 0.56111729 0.71494901 4.1326169e-39
0.25756803 -0.55897093 0.72271138 1.1164145e-41
0.26509658 -0.55895531 0.72492218 1.1164145e-41
0.27496979 -0.55893493 0.72504532 1.1164145e-41
0.28494927 -0.55891424 0.72505772 1.1164145e-41
0.29494599 -0.55889344 0.72497028 1.1164145e-41
0.30025509 -0.55888253 0.72612005 1.1164145e-41
0.44845948 -0.40060028 0.72811961 6.2448278e-39
0.45047623 -0.40326047 0.721407 6.2448278e-39
0.44503999 -0.39476338 0.72449756 6.3377422e-39
0.43806568 -0.38357303 0.72563505 6.2448278e-39
0.4405683 -0.38784945 0.72790623 6.2448278e-39
0.43316552 -0.37489808 0.72506291 8.8270046e-39
0.42775109 -0.36464798 0.72550368 1.0304985e-38
0.43058378 -0.36964148 0.72005945 1.0391441e-38
0.42258483 -0.35466889 0.72450149 9.3841189e-39
0.41763136 -0.34506175 0.72519696 1.0583724e-38
0.41258854 -0.33520401 0.72527236 9.0103141e-39
0.40736079 -0.32494664 0.72500134 6.7058031e-39
0.40333271 -0.31507882 0.72473186 6.2448278e-39
0.39915982 -0.30270872 0.72474885 6.2448278e-39
0.40084693 -0.30766189 0.72415692 6.2448278e-39
0.39652777 -0.29439831 0.72419721 6.2448278e-39
0.63512957 -0.29458943 0.72505957 2.5894734e-39
0.64124703 -0.29876718 0.72931778 1.5684636e-39
0.39765006 -0.2886827 0.72538602 7.0749373e-39
0.4050464 -0.28432709 0.72461796 6.9841879e-39
0.41101581 -0.28076756 0.72465587 8.6530727e-39
0.62665159 -0.28367591 0.72540116 2.7903986e-39
0.63072276 -0.28904742 0.72616076 2.7896798e-39
0.40988064 -0.27489355 0.72856277 6.8923552e-39
0.4160763 -0.27777782 0.72449636 8.8381842e-39
0.42507043 -0.2726416 0.72487533 6.7079667e-39
0.61910379 -0.27220654 0.72437072 2.7904e-39
0.62224144 -0.27705273 0.72494334 2.7904e-39
0.42999852 -0.26980478 0.72346824 6.2448278e-39
0.43446589 -0.26745811 0.72559434 6.2451879e-39
0.61481696 -0.26534241 0.72490722 2.7903986e-39
0.60720205 -0.25439593 0.72457999 2.7903986e-39
0.61097592 -0.25931877 0.72729897 2.7903986e-39
0.59786308 -0.24285349 0.72492218 2.8804433e-39
0.60218322 -0.24742229 0.72490692 2.7900399e-39
0.58925116 -0.23123576 0.72426766 2.7904e-39
0.59327632 -0.23612195 0.72524703 2.7903986e-39
0.58432597 -0.22483258 0.72510272 2.7903986e-39
0.57599211 -0.21436471 0.72466403 2.7903986e-39
0.58039069 -0.21936296 0.72731292 2.7904e-39
0.56699604 -0.20316508 0.72425777 2.7904e-39
0.57123655 -0.20796151 0.726394 2.7903986e-39
0.55810446 -0.19250655 0.72466058 2.7904e-39
0.562298 -0.1973037 0.72518808 2.7904e-39
