# .PCD v0.7 - Point Cloud Data file format
VERSION 0.7
FIELDS x y z rgb
SIZE 4 4 4 4
TYPE F F F F
COUNT 1 1 1 1
WIDTH 960
HEIGHT 1
VIEWPOINT 0 0 0 1 0 0 0
POINTS 960
DATA ascii
1.6746651 -0.63478738 -6.377697e-06 4.978564e-39
1.6838754 -0.63487464 -6.3180923e-06 4.978564e-39
1.69315 -0.63496381 -6.4373016e-06 4.978564e-39
1.7062294 -0.63469172 -7.367134e-06 4.978564e-39
1.7150073 -0.63583392 -5.8412552e-06 4.978564e-39
1.7251117 -0.63486862 -5.7458878e-06 4.978564e-39
1.7340053 -0.63401985 -7.1525574e-06 4.978564e-39
1.7442391 -0.63504905 -6.8426134e-06 4.978564e-39
1.7564784 -0.6348964 -6.4373016e-06 4.978564e-39
1.7662095 -0.63498682 -7.390976e-06 4.978564e-39
1.7760071 -0.63507807 -5.7220459e-06 4.978564e-39
1.7858645 -0.63516968 -6.7949295e-06 4.978564e-39
1.79579 -0.63526231 -5.4836273e-06 4.978564e-39
1.8068056 -0.63576674 -0.00082853757 4.978564e-39
1.8158348 -0.63545012 -7.6293945e-06 4.978564e-39
1.8259491 -0.63554317 -6.4373016e-06 4.978564e-39
1.8368199 -0.63454074 -6.3180923e-06 4.978564e-39
1.846388 -0.63573343 -6.1988831e-06 4.978564e-39
1.8532624 -0.63510478 -7.1525574e-06 4.978564e-39
1.8629372 -0.63421822 -5.3405761e-06 4.978564e-39
1.8740647 -0.63529396 -6.7949295e-06 4.978564e-39
1.8838718 -0.63440293 -7.0333481e-06 4.978564e-39
1.8951483 -0.63548636 -8.225441e-06 4.978564e-39
1.9050839 -0.63458872 -5.7458878e-06 4.978564e-39
1.9165105 -0.63567936 -5.4836273e-06 4.978564e-39
1.9251126 -0.63480973 -0.00041260727 4.978564e-39
1.9345434 -0.63513374 -6.7949295e-06 4.978564e-39
1.9454564 -0.63523072 -8.7817507e-06 4.978564e-39
1.9527701 -0.63457918 -6.0796738e-06 4.978564e-39
1.9645535 -0.63568628 -7.4148179e-06 4.978564e-39
1.9749248 -0.63477117 -6.9141388e-06 4.978564e-39
1.9863824 -0.63585973 -0.00035675601 4.978564e-39
1.9973826 -0.6349647 -4.8875809e-06 4.978564e-39
2.0049398 -0.63648403 -5.6028366e-06 4.978564e-39
2.0125325 -0.63363963 -6.7949295e-06 4.978564e-39
2.0247586 -0.63476408 -8.5830688e-06 4.978564e-39
2.0355189 -0.63382852 -7.0333481e-06 4.978564e-39
2.0432525 -0.63536263 -7.0333481e-06 4.978564e-39
2.0541453 -0.63442385 -7.4625013e-06 4.978564e-39
2.0666733 -0.63556564 -7.9870224e-06 4.978564e-39
2.0745513 -0.63489097 -6.5565109e-06 4.978564e-39
2.0824692 -0.63421386 -6.9141388e-06 4.978564e-39
2.095221 -0.63536394 -7.2717667e-06 4.978564e-39
2.1064503 -0.63441128 -8.1062317e-06 4.978564e-39
2.1145203 -0.63598001 -8.4638596e-06 4.978564e-39
2.1226256 -0.63529629 -6.4373016e-06 4.978564e-39
2.1348662 -0.63766754 -7.0333481e-06 4.978564e-39
2.1973865 -0.63361871 -7.7486038e-06 4.978564e-39
2.2058959 -0.6352272 -7.0333481e-06 4.978564e-39
0.50474179 -0.62471312 -5.7290581e-06 4.978564e-39
0.51537216 -0.6252659 -5.5233636e-06 4.978564e-39
0.52499402 -0.62491918 -6.577548e-06 4.978564e-39
0.53533304 -0.6251902 -4.6166506e-06 4.978564e-39
0.54564446 -0.62481964 -4.8279762e-06 4.978564e-39
0.55382949 -0.62490147 -5.284945e-06 4.978564e-39
1.5486431 -0.62545127 -4.529953e-06 4.978564e-39
1.5576541 -0.62450802 -7.1048735e-06 4.978564e-39
1.5655779 -0.62556493 -6.5565109e-06 4.978564e-39
1.5746952 -0.62461537 -6.9379807e-06 4.978564e-39
1.5850174 -0.62544024 -5.6982039e-06 4.978564e-39
1.5942541 -0.62448412 -5.8412552e-06 4.978564e-39
1.6023915 -0.62555444 -6.1035157e-06 4.978564e-39
1.6146793 -0.62525201 -6.0995421e-06 4.978564e-39
1.6270733 -0.62494528 -6.6518783e-06 4.978564e-39
1.6353923 -0.62602991 -7.1525574e-06 4.978564e-39
1.6449636 -0.62505794 -6.508827e-06 4.978564e-39
1.6564085 -0.62487102 -5.9604645e-06 4.978564e-39
1.6655053 -0.62492698 -6.1988831e-06 4.978564e-39
1.6746652 -0.62498468 -6.4969063e-06 4.978564e-39
1.6838754 -0.62504119 -6.3180923e-06 4.978564e-39
1.69315 -0.62509948 -6.4373016e-06 4.978564e-39
1.7049782 -0.62490809 -6.8187715e-06 4.978564e-39
1.7150073 -0.62589681 -5.8412552e-06 4.978564e-39
1.7238457 -0.62502319 -5.9366225e-06 4.978564e-39
1.7340053 -0.62401956 -7.1525574e-06 4.978564e-39
1.742955 -0.62514013 -5.7458878e-06 4.978564e-39
1.7564784 -0.62482131 -6.4373016e-06 4.978564e-39
1.7662095 -0.62487936 -7.390976e-06 4.978564e-39
1.7760071 -0.62493795 -5.7220459e-06 4.978564e-39
1.7858645 -0.62499678 -6.7949295e-06 4.978564e-39
1.7957901 -0.62505645 -5.4836273e-06 4.978564e-39
1.805776 -0.62511593 -6.4373016e-06 4.978564e-39
1.8158346 -0.62517744 -7.6293945e-06 4.978564e-39
1.8259491 -0.62523687 -6.4373016e-06 4.978564e-39
1.8354576 -0.62432855 -6.6041948e-06 4.978564e-39
1.846388 -0.62535906 -6.1988831e-06 4.978564e-39
1.8532624 -0.62470758 -7.1525574e-06 4.978564e-39
1.8636315 -0.62476766 -5.9902668e-06 4.978564e-39
1.8740635 -0.62482709 -5.9207282e-06 4.978564e-39
1.8845751 -0.62488919 -7.5101852e-06 4.978564e-39
1.8951483 -0.62494975 -8.225441e-06 4.978564e-39
1.905797 -0.62501115 -6.4969063e-06 4.978564e-39
1.916514 -0.62507284 -7.8678131e-06 4.978564e-39
1.9236997 -0.62440532 -7.5101852e-06 4.978564e-39
1.9352678 -0.62546456 -6.3657762e-06 4.978564e-39
1.9454551 -0.62452626 -7.9870224e-06 4.978564e-39
1.9527701 -0.62599647 -6.0796738e-06 4.978564e-39
1.9630769 -0.625054 -7.6055526e-06 4.978564e-39
1.9749248 -0.62612945 -6.9141388e-06 4.978564e-39
1.9853714 -0.62518001 -6.3896177e-06 4.978564e-39
1.9964825 -0.62471104 -0.00039227668 4.978564e-39
2.0049398 -0.62558192 -5.6028366e-06 4.978564e-39
2.0125325 -0.62489778 -6.7949295e-06 4.978564e-39
2.0239925 -0.62496054 -8.7022781e-06 4.978564e-39
2.0355189 -0.62502545 -7.0333481e-06 4.978564e-39
2.0432525 -0.62653899 -7.0333481e-06 4.978564e-39
2.0549257 -0.62439615 -7.2717667e-06 4.978564e-39
2.0666733 -0.62445813 -7.9870224e-06 4.978564e-39
2.0745513 -0.62375718 -6.5565109e-06 4.978564e-39
2.0824692 -0.62528574 -6.9141388e-06 4.978564e-39
2.093621 -0.62430203 -6.5565109e-06 4.978564e-39
2.1064503 -0.62541938 -8.1062317e-06 4.978564e-39
2.1145203 -0.62471318 -8.4638596e-06 4.978564e-39
2.1226256 -0.62400258 -6.4373016e-06 4.978564e-39
2.2058959 -0.62828469 -7.0333481e-06 4.978564e-39
2.2230396 -0.6245144 -5.2452087e-06 4.978564e-39
0.50467646 -0.61495703 -5.8412552e-06 4.978564e-39
0.51530951 -0.61520398 -5.312264e-06 4.978564e-39
0.52492726 -0.61505175 -6.5267086e-06 4.978564e-39
0.53523564 -0.61507112 -0.00042307898 4.978564e-39
0.54564446 -0.61514753 -4.8279762e-06 4.978564e-39
0.55382949 -0.61518574 -5.284945e-06 4.978564e-39
1.5486431 -0.61419123 -4.529953e-06 4.978564e-39
1.5565255 -0.61521679 -7.081032e-06 4.978564e-39
1.5655779 -0.61423725 -6.5565109e-06 4.978564e-39
1.573552 -0.61526781 -6.2942504e-06 4.978564e-39
1.5855937 -0.61492473 -5.9604645e-06 4.978564e-39
1.5942543 -0.61494899 -5.8412552e-06 4.978564e-39
1.6029743 -0.61497492 -6.1392784e-06 4.978564e-39
1.6159004 -0.61425012 -0.00069851591 4.978564e-39
1.6258873 -0.61542547 -5.7220459e-06 4.978564e-39
1.6353923 -0.61442339 -7.1525574e-06 4.978564e-39
1.6437635 -0.61547953 -6.1273577e-06 4.978564e-39
1.6564087 -0.61512893 -5.9604645e-06 4.978564e-39
1.6655053 -0.61515462 -6.1988831e-06 4.978564e-39
1.6746651 -0.61518186 -6.4969063e-06 4.978564e-39
1.6838754 -0.61520773 -6.3180923e-06 4.978564e-39
1.693149 -0.61523479 -5.4836273e-06 4.978564e-39
1.7062292 -0.61487603 -7.367134e-06 4.978564e-39
1.7150073 -0.6159597 -5.8412552e-06 4.978564e-39
1.7251117 -0.61492717 -5.7458878e-06 4.978564e-39
1.7340053 -0.61401927 -7.1525574e-06 4.978564e-39
1.7442385 -0.6149801 -6.2942504e-06 4.978564e-39
1.7564784 -0.61474621 -6.4373016e-06 4.978564e-39
1.7662101 -0.61477202 -7.8280764e-06 4.978564e-39
1.7760071 -0.61479795 -5.7220459e-06 4.978564e-39
1.7858645 -0.61482388 -6.7949295e-06 4.978564e-39
1.7957904 -0.61485064 -5.8114529e-06 4.978564e-39
1.8057771 -0.61487716 -7.3115029e-06 4.978564e-39
1.8158338 -0.61490446 -6.9141388e-06 4.978564e-39
1.8259491 -0.61493051 -6.4373016e-06 4.978564e-39
1.8361394 -0.61495858 -7.0333481e-06 4.978564e-39
1.8463897 -0.61498529 -7.5101852e-06 4.978564e-39
1.8532624 -0.61431038 -7.1525574e-06 4.978564e-39
1.8643255 -0.61531049 -6.3896177e-06 4.978564e-39
1.874063 -0.61436045 -5.4836273e-06 4.978564e-39
1.8852772 -0.61536849 -6.9856642e-06 4.978564e-39
1.8951483 -0.61441314 -8.225441e-06 4.978564e-39
1.9065092 -0.61542654 -6.3896177e-06 4.978564e-39
1.9165142 -0.61446512 -7.8678131e-06 4.978564e-39
1.9236997 -0.61589998 -7.5101852e-06 4.978564e-39
1.9338179 -0.61493295 -6.6280363e-06 4.978564e-39
1.9454534 -0.61596239 -6.7949295e-06 4.978564e-39
1.9527701 -0.61526799 -6.0796738e-06 4.978564e-39
1.9638152 -0.61529887 -7.5101852e-06 4.978564e-39
1.9749247 -0.6153273 -6.9141388e-06 4.978564e-39
1.9861202 -0.61535782 -6.4969063e-06 4.978564e-39
1.9973826 -0.61538625 -4.8875809e-06 4.978564e-39
2.0049398 -0.61467993 -5.6028366e-06 4.978564e-39
2.0125325 -0.61615592 -6.7949295e-06 4.978564e-39
2.0232251 -0.61516362 -7.7724453e-06 4.978564e-39
2.0355189 -0.61622238 -7.0333481e-06 4.978564e-39
2.0432525 -0.61550939 -7.0333481e-06 4.978564e-39
2.0549257 -0.6155414 -7.2717667e-06 4.978564e-39
2.0666733 -0.61335063 -7.9870224e-06 4.978564e-39
2.0745513 -0.61485016 -6.5565109e-06 4.978564e-39
2.0824692 -0.61635768 -6.9141388e-06 4.978564e-39
2.0944195 -0.61415267 -5.9604645e-06 4.978564e-39
2.1064503 -0.61642742 -8.1062317e-06 4.978564e-39
2.1145203 -0.61344641 -8.4638596e-06 4.978564e-39
2.1226256 -0.61496753 -6.4373016e-06 4.978564e-39
2.1389577 -0.61349404 -5.8412552e-06 4.978564e-39
2.1471851 -0.61275256 -7.0333481e-06 4.978564e-39
0.5046109 -0.6052022 -5.7991815e-06 4.978564e-39
0.51498353 -0.60489142 -4.7495491e-06 4.978564e-39
0.5248602 -0.60518575 -6.7949295e-06 4.978564e-39
0.53512377 -0.60500896 -4.6708369e-06 4.978564e-39
0.54557592 -0.60516769 -5.0558765e-06 4.978564e-39
0.55364883 -0.60506594 -5.2360388e-06 4.978564e-39
1.5486431 -0.60480785 -4.529953e-06 4.978564e-39
1.5570898 -0.60480404 -7.0929527e-06 4.978564e-39
1.5655779 -0.60479748 -6.5565109e-06 4.978564e-39
1.574122 -0.60479188 -5.2452087e-06 4.978564e-39
1.5861698 -0.60440308 -6.222725e-06 4.978564e-39
1.5942541 -0.60541373 -5.8412552e-06 4.978564e-39
1.6035572 -0.60438907 -6.1750411e-06 4.978564e-39
1.6140919 -0.60514879 -6.246567e-06 4.978564e-39
1.6264797 -0.60475731 -5.7220459e-06 4.978564e-39
1.6353891 -0.60475004 -4.2915344e-06 4.978564e-39
1.6443635 -0.60474563 -6.3180923e-06 4.978564e-39
1.6570133 -0.60434628 -5.9366225e-06 4.978564e-39
1.6655053 -0.60538226 -6.1988831e-06 4.978564e-39
1.6752774 -0.60433185 -6.2704084e-06 4.978564e-39
1.6838754 -0.60537428 -6.3180923e-06 4.978564e-39
1.6937687 -0.60431659 -5.2213668e-06 4.978564e-39
1.7049783 -0.60510075 -7.1048735e-06 4.978564e-39
1.7150086 -0.60403568 -6.8744025e-06 4.978564e-39
1.7238461 -0.60509032 -6.1988831e-06 4.978564e-39
1.7340053 -0.60401899 -7.1525574e-06 4.978564e-39
1.7429558 -0.60508025 -6.3180923e-06 4.978564e-39
1.7571261 -0.60561049 -6.9856642e-06 4.978564e-39
1.7662112 -0.60466492 -8.7022781e-06 4.978564e-39
1.7766634 -0.60560328 -6.4373016e-06 4.978564e-39
1.7858645 -0.60465097 -6.7949295e-06 4.978564e-39
1.7954632 -0.60518974 -0.0008250309 4.978564e-39
1.8057777 -0.60463822 -7.7486038e-06 4.978564e-39
1.8165052 -0.60558891 -6.0558318e-06 4.978564e-39
1.8259491 -0.60462415 -6.4373016e-06 4.978564e-39
1.8368206 -0.60558206 -6.8902968e-06 4.978564e-39
1.8463897 -0.60461104 -7.5101852e-06 4.978564e-39
1.8532624 -0.60599256 -7.1525574e-06 4.978564e-39
1.8629395 -0.60501653 -6.8426134e-06 4.978564e-39
1.874063 -0.60598719 -5.4836273e-06 4.978564e-39
1.8838701 -0.60500491 -5.6982039e-06 4.978564e-39
1.8951485 -0.60598385 -8.4638596e-06 4.978564e-39
1.905085 -0.60499394 -6.6041948e-06 4.978564e-39
1.9165142 -0.60597891 -7.8678131e-06 4.978564e-39
1.9236997 -0.60526836 -7.5101852e-06 4.978564e-39
1.9345429 -0.60526389 -6.4969063e-06 4.978564e-39
1.9454533 -0.60525835 -6.7949295e-06 4.978564e-39
1.9527701 -0.60453963 -6.0796738e-06 4.978564e-39
1.9645535 -0.60553694 -7.4148179e-06 4.978564e-39
1.9749248 -0.60452515 -6.9141388e-06 4.978564e-39
1.9868691 -0.60552865 -6.6041948e-06 4.978564e-39
1.9973826 -0.60450935 -4.8875809e-06 4.978564e-39
2.0049398 -0.60595822 -5.6028366e-06 4.978564e-39
2.0125325 -0.6052286 -6.7949295e-06 4.978564e-39
2.0239899 -0.60522437 -6.7949295e-06 4.978564e-39
2.0355189 -0.60521853 -7.0333481e-06 4.978564e-39
2.0432525 -0.60447979 -7.0333481e-06 4.978564e-39
2.055706 -0.60550439 -7.081032e-06 4.978564e-39
2.0666733 -0.60446465 -7.9870224e-06 4.978564e-39
2.0745513 -0.6059432 -6.5565109e-06 4.978564e-39
2.0824692 -0.60519761 -6.9141388e-06 4.978564e-39
2.0944185 -0.60519248 -5.364418e-06 4.978564e-39
2.1064498 -0.60518736 -7.6691313e-06 4.978564e-39
2.1145203 -0.604433 -8.4638596e-06 4.978564e-39
2.1226256 -0.60593247 -6.4373016e-06 4.978564e-39
2.1389577 -0.60441554 -5.8412552e-06 4.978564e-39
2.1471851 -0.6082024 -7.0333481e-06 4.978564e-39
2.2933562 -0.60194117 -7.6293945e-06 4.978564e-39
0.50467688 -0.59486789 -5.6690642e-06 4.978564e-39
0.51474571 -0.59480023 -4.2631514e-06 4.978564e-39
0.52492726 -0.59533107 -6.5267086e-06 4.978564e-39
0.53522843 -0.59490472 -5.1021575e-06 4.978564e-39
0.54564428 -0.59519899 -4.2319298e-06 4.978564e-39
0.55382949 -0.59494585 -5.284945e-06 4.978564e-39
1.5486431 -0.59542447 -4.529953e-06 4.978564e-39
1.5576541 -0.59438533 -7.1048735e-06 4.978564e-39
1.5655779 -0.59535784 -6.5565109e-06 4.978564e-39
1.5746932 -0.5943104 -5.2928926e-06 4.978564e-39
1.5850174 -0.59502608 -5.6982039e-06 4.978564e-39
1.5942541 -0.59397155 -5.8412552e-06 4.978564e-39
1.6023912 -0.59495533 -6.1035157e-06 4.978564e-39
1.6146792 -0.59452194 -6.1392784e-06 4.978564e-39
1.6264799 -0.59511483 -5.7220459e-06 4.978564e-39
1.635389 -0.59507799 -4.2915344e-06 4.978564e-39
1.644364 -0.59504384 -6.6459179e-06 4.978564e-39
1.6558044 -0.59473735 -6.508827e-06 4.978564e-39
1.6655062 -0.59561038 -7.0333481e-06 4.978564e-39
1.6740538 -0.5946632 -7.2956086e-06 4.978564e-39
1.6838754 -0.59554088 -6.3180923e-06 4.978564e-39
1.6925291 -0.59458703 -5.6505205e-06 4.978564e-39
1.7062299 -0.59506053 -7.9393385e-06 4.978564e-39
1.7150092 -0.59409887 -7.390976e-06 4.978564e-39
1.7251129 -0.59498614 -6.532669e-06 4.978564e-39
1.7340053 -0.5940187 -7.1525574e-06 4.978564e-39
1.7442391 -0.59491163 -6.8664549e-06 4.978564e-39
1.7558311 -0.59567177 -6.0319899e-06 4.978564e-39
1.7662112 -0.59455746 -8.7022781e-06 4.978564e-39
1.7753527 -0.5956009 -6.3180923e-06 4.978564e-39
1.7858645 -0.59447807 -6.7949295e-06 4.978564e-39
1.7951276 -0.59552902 -6.4134597e-06 4.978564e-39
1.8057777 -0.59439898 -7.7486038e-06 4.978564e-39
1.8151596 -0.59545577 -5.5789947e-06 4.978564e-39
1.8259491 -0.59431791 -6.4373016e-06 4.978564e-39
1.8354584 -0.59538251 -7.1763993e-06 4.978564e-39
1.8463897 -0.59423667 -7.5101852e-06 4.978564e-39
1.8532624 -0.59559536 -7.1525574e-06 4.978564e-39
1.8636324 -0.59555906 -6.6161156e-06 4.978564e-39
1.874063 -0.59552079 -5.4836273e-06 4.978564e-39
1.8845727 -0.59548432 -5.6028366e-06 4.978564e-39
1.8951486 -0.59544724 -8.4638596e-06 4.978564e-39
1.905797 -0.59540933 -6.4969063e-06 4.978564e-39
1.916514 -0.59537119 -7.8678131e-06 4.978564e-39
1.9236997 -0.59463668 -7.5101852e-06 4.978564e-39
1.9352678 -0.59558803 -6.3657762e-06 4.978564e-39
1.9454534 -0.59455425 -6.7949295e-06 4.978564e-39
1.9527702 -0.59595692 -6.3180923e-06 4.978564e-39
1.9630762 -0.59491813 -7.1287154e-06 4.978564e-39
1.9749248 -0.59588343 -6.9141388e-06 4.978564e-39
1.9853714 -0.59483659 -6.3896177e-06 4.978564e-39
1.9973826 -0.59580785 -4.8875809e-06 4.978564e-39
2.0049398 -0.59505624 -5.6028366e-06 4.978564e-39
2.0125325 -0.59430128 -6.7949295e-06 4.978564e-39
2.024755 -0.59527814 -6.1035157e-06 4.978564e-39
2.0355177 -0.59421444 -6.4373016e-06 4.978564e-39
2.0432525 -0.59565616 -7.0333481e-06 4.978564e-39
2.0541453 -0.59458679 -7.4625013e-06 4.978564e-39
2.0666733 -0.59557855 -7.9870224e-06 4.978564e-39
2.0745518 -0.59480959 -6.9538751e-06 4.978564e-39
2.0824692 -0.59403747 -6.9141388e-06 4.978564e-39
2.0952184 -0.59503394 -5.6028366e-06 4.978564e-39
2.1064494 -0.59394729 -7.4505806e-06 4.978564e-39
2.1145203 -0.59541959 -8.4638596e-06 4.978564e-39
2.1226265 -0.59463912 -7.3115029e-06 4.978564e-39
0.50467634 -0.58482277 -5.1856041e-06 4.978564e-39
0.51474595 -0.58505499 -4.3630598e-06 4.978564e-39
0.52492738 -0.5851714 -5.9869553e-06 4.978564e-39
0.53522825 -0.5850476 -5.1373527e-06 4.978564e-39
0.5456441 -0.58492184 -3.1259324e-06 4.978564e-39
0.55382949 -0.58523017 -5.284945e-06 4.978564e-39
1.5486437 -0.58416468 -5.0067902e-06 4.978564e-39
1.5565252 -0.58510602 -7.081032e-06 4.978564e-39
1.5655779 -0.58403015 -6.5565109e-06 4.978564e-39
1.5735511 -0.58497536 -5.5074693e-06 4.978564e-39
1.5855926 -0.58450401 -5.1061311e-06 4.978564e-39
1.594256 -0.58443701 -7.2717667e-06 4.978564e-39
1.6035582 -0.58525723 -7.0333481e-06 4.978564e-39
1.6146801 -0.5849191 -6.7949295e-06 4.978564e-39
1.6264807 -0.58547276 -6.4969063e-06 4.978564e-39
1.6353891 -0.58540589 -4.2915344e-06 4.978564e-39
1.6443639 -0.58534187 -6.5167746e-06 4.978564e-39
1.6570141 -0.58485848 -6.4611436e-06 4.978564e-39
1.6655072 -0.58583838 -7.8678131e-06 4.978564e-39
1.6752783 -0.58472258 -7.1287154e-06 4.978564e-39
1.6838754 -0.58570737 -6.3180923e-06 4.978564e-39
1.6937692 -0.58458412 -5.7935713e-06 4.978564e-39
1.7049792 -0.58529365 -7.6770784e-06 4.978564e-39
1.7150092 -0.58416182 -7.390976e-06 4.978564e-39
1.7238464 -0.58515751 -6.4611436e-06 4.978564e-39
1.7340053 -0.58401829 -7.1525574e-06 4.978564e-39
1.7429559 -0.58502018 -6.6041948e-06 4.978564e-39
1.7571239 -0.58545518 -5.4121019e-06 4.978564e-39
1.7662078 -0.58444881 -6.0796738e-06 4.978564e-39
1.7766634 -0.58531868 -6.4373016e-06 4.978564e-39
1.7858645 -0.58430517 -6.7949295e-06 4.978564e-39
1.7964544 -0.58517969 -5.8650971e-06 4.978564e-39
1.8057777 -0.58415979 -7.7486038e-06 4.978564e-39
1.8165045 -0.58503884 -5.5074693e-06 4.978564e-39
1.8259491 -0.58401155 -6.4373016e-06 4.978564e-39
1.8368206 -0.58489704 -6.8902968e-06 4.978564e-39
1.8463897 -0.5838623 -7.5101852e-06 4.978564e-39
1.8532624 -0.5851981 -7.1525574e-06 4.978564e-39
1.8644582 -0.58491743 -0.00018041242 4.978564e-39
1.874063 -0.58505428 -5.4836273e-06 4.978564e-39
1.8845726 -0.58498287 -5.6028366e-06 4.978564e-39
1.8951448 -0.58490938 -5.7220459e-06 4.978564e-39
1.9065092 -0.58581817 -6.3896177e-06 4.978564e-39
1.9165142 -0.58476341 -7.8678131e-06 4.978564e-39
1.9236997 -0.58613133 -7.5101852e-06 4.978564e-39
1.9338181 -0.58507001 -6.6280363e-06 4.978564e-39
1.9454534 -0.58599102 -6.7949295e-06 4.978564e-39
1.9527702 -0.5852285 -6.3180923e-06 4.978564e-39
1.9638135 -0.58515584 -6.28829e-06 4.978564e-39
1.9749247 -0.58508128 -6.9141388e-06 4.978564e-39
1.9861202 -0.58500743 -6.4969063e-06 4.978564e-39
1.9973837 -0.58493131 -5.7617822e-06 4.978564e-39
2.0049398 -0.58415413 -5.6028366e-06 4.978564e-39
2.0125332 -0.58555973 -7.390976e-06 4.978564e-39
2.0232234 -0.58446705 -6.7710876e-06 4.978564e-39
2.0355167 -0.58541107 -5.8412552e-06 4.978564e-39
2.0432525 -0.58462662 -7.1128211e-06 4.978564e-39
2.0549266 -0.58455008 -7.8678131e-06 4.978564e-39
2.0666733 -0.58447105 -7.9870224e-06 4.978564e-39
2.074553 -0.58367622 -7.7486038e-06 4.978564e-39
2.0824692 -0.58510941 -6.9141388e-06 4.978564e-39
2.0944195 -0.58503032 -5.9604645e-06 4.978564e-39
2.1064503 -0.58495563 -8.1062317e-06 4.978564e-39
2.1145167 -0.5864051 -6.0796738e-06 4.978564e-39
2.1226273 -0.58334553 -7.7486038e-06 4.978564e-39
0.50430667 -0.57504714 -5.6028366e-06 4.978564e-39
0.51484835 -0.57506281 -4.4107437e-06 4.978564e-39
0.52499354 -0.57471734 -5.2452087e-06 4.978564e-39
0.53522855 -0.57519066 -5.2571295e-06 4.978564e-39
0.54564393 -0.5746454 -3.4123659e-06 4.978564e-39
0.55401045 -0.57510614 -5.6578565e-06 4.978564e-39
1.5486448 -0.57478178 -5.9604645e-06 4.978564e-39
1.5570906 -0.57468766 -7.8678131e-06 4.978564e-39
1.5655779 -0.57459044 -6.5565109e-06 4.978564e-39
1.5741228 -0.57449406 -6.0200691e-06 4.978564e-39
1.5855927 -0.57499778 -5.364418e-06 4.978564e-39
1.5942539 -0.57490104 -5.443891e-06 4.978564e-39
1.602392 -0.57583106 -6.6757202e-06 4.978564e-39
1.6146802 -0.57531589 -6.7949295e-06 4.978564e-39
1.6270733 -0.57479441 -6.6518783e-06 4.978564e-39
1.635389 -0.57573384 -4.2915344e-06 4.978564e-39
1.6449623 -0.57459694 -5.38826e-06 4.978564e-39
1.6558043 -0.57525718 -6.222725e-06 4.978564e-39
1.6655072 -0.57411164 -7.8678131e-06 4.978564e-39
1.6740538 -0.57506168 -7.2956086e-06 4.978564e-39
1.6838754 -0.57587397 -6.3180923e-06 4.978564e-39
1.6925291 -0.5748626 -5.6505205e-06 4.978564e-39
1.706228 -0.57524413 -6.3657762e-06 4.978564e-39
1.7150092 -0.57422471 -7.390976e-06 4.978564e-39
1.7251129 -0.57504475 -6.532669e-06 4.978564e-39
1.7340053 -0.574018 -7.1525574e-06 4.978564e-39
1.7442391 -0.57484287 -6.8664549e-06 4.978564e-39
1.7558311 -0.57552588 -6.0319899e-06 4.978564e-39
1.7662078 -0.5743413 -6.0796738e-06 4.978564e-39
1.7753528 -0.57532507 -6.3180923e-06 4.978564e-39
1.7858645 -0.57413226 -6.7949295e-06 4.978564e-39
1.7951276 -0.57512152 -6.4134597e-06 4.978564e-39
1.8057777 -0.57596844 -7.7486038e-06 4.978564e-39
1.8151598 -0.57491493 -5.5789947e-06 4.978564e-39
1.8259491 -0.5757665 -6.4373016e-06 4.978564e-39
1.8354563 -0.57470584 -5.5313112e-06 4.978564e-39
1.8463897 -0.57556283 -7.5101852e-06 4.978564e-39
1.8532624 -0.57480091 -7.1525574e-06 4.978564e-39
1.8636324 -0.57469559 -6.6161156e-06 4.978564e-39
1.874063 -0.57458788 -5.4836273e-06 4.978564e-39
1.8845726 -0.57448143 -5.6028366e-06 4.978564e-39
1.8951454 -0.57437295 -6.11941e-06 4.978564e-39
1.9050837 -0.57539833 -5.5551527e-06 4.978564e-39
1.9165142 -0.5762772 -7.8678131e-06 4.978564e-39
1.9237003 -0.57549983 -7.9075498e-06 4.978564e-39
1.9345434 -0.57539427 -6.7949295e-06 4.978564e-39
1.9454533 -0.57528692 -6.7949295e-06 4.978564e-39
1.9527738 -0.57450116 -8.8214874e-06 4.978564e-39
1.9645522 -0.57538712 -6.4373016e-06 4.978564e-39
1.9749248 -0.57427913 -6.9141388e-06 4.978564e-39
1.9868698 -0.57517147 -7.081032e-06 4.978564e-39
1.9973862 -0.57405508 -7.5101852e-06 4.978564e-39
2.0049398 -0.57543254 -5.6028366e-06 4.978564e-39
2.0125341 -0.57463264 -7.9870224e-06 4.978564e-39
2.0239897 -0.57452106 -6.7949295e-06 4.978564e-39
2.0355167 -0.57440716 -5.8412552e-06 4.978564e-39
2.0432506 -0.57359648 -5.8412552e-06 4.978564e-39
2.0549266 -0.57569534 -7.8678131e-06 4.978564e-39
2.0666733 -0.57336354 -7.9870224e-06 4.978564e-39
2.074553 -0.57476926 -7.7486038e-06 4.978564e-39
2.0824692 -0.57618135 -6.9141388e-06 4.978564e-39
2.0936205 -0.57503402 -6.0796738e-06 4.978564e-39
2.1064503 -0.57596368 -8.1062317e-06 4.978564e-39
2.1145167 -0.57513833 -6.0796738e-06 4.978564e-39
2.1226273 -0.57431054 -7.7486038e-06 4.978564e-39
2.1973827 -0.57128769 -5.364418e-06 4.978564e-39
2.2058976 -0.57274485 -8.225441e-06 4.978564e-39
0.50453734 -0.56483471 -5.3942204e-06 4.978564e-39
0.51444924 -0.56478953 -0.00028258274 4.978564e-39
0.52492714 -0.56485224 -5.9902668e-06 4.978564e-39
0.5353331 -0.56508297 -4.7900462e-06 4.978564e-39
0.54564399 -0.56497341 -3.695488e-06 4.978564e-39
0.55382943 -0.56498802 -5.1259995e-06 4.978564e-39
1.5486447 -0.5653984 -5.9604645e-06 4.978564e-39
1.5576551 -0.56426299 -8.0347063e-06 4.978564e-39
1.5655779 -0.56515068 -6.5565109e-06 4.978564e-39
1.5741228 -0.56502593 -6.0200691e-06 4.978564e-39
1.5855927 -0.56549144 -5.364418e-06 4.978564e-39
1.5942527 -0.56536549 -4.529953e-06 4.978564e-39
1.602975 -0.5652414 -6.8545341e-06 4.978564e-39
1.6152678 -0.56467897 -6.8187715e-06 4.978564e-39
1.6258881 -0.5652954 -6.3419343e-06 4.978564e-39
1.635389 -0.56412733 -4.2915344e-06 4.978564e-39
1.6437633 -0.56503975 -5.8174132e-06 4.978564e-39
1.6570126 -0.5653699 -5.364418e-06 4.978564e-39
1.6655072 -0.56433928 -7.8678131e-06 4.978564e-39
1.6752783 -0.56511289 -7.1287154e-06 4.978564e-39
1.6838754 -0.56604046 -6.3180923e-06 4.978564e-39
1.6937692 -0.5648514 -5.7935713e-06 4.978564e-39
1.7049778 -0.56548584 -6.6280363e-06 4.978564e-39
1.7150058 -0.56428641 -4.529953e-06 4.978564e-39
1.7238464 -0.56522453 -6.4611436e-06 4.978564e-39
1.7340053 -0.56401777 -7.1525574e-06 4.978564e-39
1.7429562 -0.56496 -6.6041948e-06 4.978564e-39
1.7571239 -0.56530076 -5.4121019e-06 4.978564e-39
1.7662078 -0.56423384 -6.0796738e-06 4.978564e-39
1.7766634 -0.56503409 -6.4373016e-06 4.978564e-39
1.7858645 -0.56395936 -6.7949295e-06 4.978564e-39
1.7964544 -0.56476337 -5.8650971e-06 4.978564e-39
1.8057777 -0.56572926 -7.7486038e-06 4.978564e-39
1.8165045 -0.56448913 -5.5074693e-06 4.978564e-39
1.8259497 -0.56546038 -6.9141388e-06 4.978564e-39
1.8361378 -0.5653249 -5.6624413e-06 4.978564e-39
1.8463897 -0.56518847 -7.5101852e-06 4.978564e-39
1.8532633 -0.56440389 -7.7486038e-06 4.978564e-39
1.8643262 -0.56522727 -6.9141388e-06 4.978564e-39
1.874063 -0.56412143 -5.4836273e-06 4.978564e-39
1.885277 -0.56495017 -6.7949295e-06 4.978564e-39
1.8951465 -0.56383669 -6.9141388e-06 4.978564e-39
1.9065088 -0.56466907 -6.1273577e-06 4.978564e-39
1.916514 -0.56566948 -7.8678131e-06 4.978564e-39
1.9237015 -0.56486851 -8.7022781e-06 4.978564e-39
1.9352688 -0.56571186 -7.081032e-06 4.978564e-39
1.9454534 -0.56458288 -6.7949295e-06 4.978564e-39
1.9527738 -0.56591845 -8.8214874e-06 4.978564e-39
1.9630759 -0.56478232 -6.8902968e-06 4.978564e-39
1.9749248 -0.56563735 -6.9141388e-06 4.978564e-39
1.9853725 -0.56449354 -7.1048735e-06 4.978564e-39
1.9973862 -0.56535357 -7.5101852e-06 4.978564e-39
2.0049398 -0.56453043 -5.6028366e-06 4.978564e-39
2.0125341 -0.56370527 -7.9870224e-06 4.978564e-39
2.0239897 -0.56574869 -6.7949295e-06 4.978564e-39
2.0355167 -0.56340337 -5.8412552e-06 4.978564e-39
2.0432506 -0.56477284 -5.8412552e-06 4.978564e-39
2.0557065 -0.56564879 -7.2956086e-06 4.978564e-39
2.0666733 -0.5644775 -7.9870224e-06 4.978564e-39
2.074553 -0.56586218 -7.7486038e-06 4.978564e-39
2.0824692 -0.56502122 -6.9141388e-06 4.978564e-39
2.0944195 -0.56487322 -5.9604645e-06 4.978564e-39
2.1064503 -0.56472379 -8.1062317e-06 4.978564e-39
2.1145167 -0.56387156 -6.0796738e-06 4.978564e-39
2.1226273 -0.56527555 -7.7486038e-06 4.978564e-39
2.1889169 -0.56062824 -7.2717667e-06 4.978564e-39
2.1973827 -0.56436217 -5.364418e-06 4.978564e-39
2.205894 -0.56580132 -5.8412552e-06 4.978564e-39
0.50448024 -0.55497265 -5.1189872e-06 4.978564e-39
0.51485282 -0.55488074 -4.036086e-06 4.978564e-39
0.52486008 -0.55498797 -6.1638216e-06 4.978564e-39
0.53522813 -0.5549947 -4.2915344e-06 4.978564e-39
0.54571229 -0.55500281 -3.5762787e-06 4.978564e-39
0.55382907 -0.55486733 -4.6491623e-06 4.978564e-39
1.5486447 -0.55413836 -5.9604645e-06 4.978564e-39
1.5565259 -0.55499566 -7.7009199e-06 4.978564e-39
1.5655779 -0.55382299 -6.5565109e-06 4.978564e-39
1.5741228 -0.55555773 -6.0200691e-06 4.978564e-39
1.5861685 -0.55495965 -5.1975248e-06 4.978564e-39
1.5942527 -0.55583036 -4.529953e-06 4.978564e-39
1.6035569 -0.55464512 -5.8412552e-06 4.978564e-39
1.6140925 -0.55522287 -6.7710876e-06 4.978564e-39
1.6264807 -0.55461699 -6.4969063e-06 4.978564e-39
1.6353891 -0.55445528 -4.2915344e-06 4.978564e-39
1.6449623 -0.55518907 -5.38826e-06 4.978564e-39
1.655803 -0.55577672 -5.1259995e-06 4.978564e-39
1.6655072 -0.55456698 -7.8678131e-06 4.978564e-39
1.6740538 -0.55546016 -7.2956086e-06 4.978564e-39
1.6838754 -0.55424035 -6.3180923e-06 4.978564e-39
1.6925291 -0.55513799 -5.6505205e-06 4.978564e-39
1.706228 -0.55542839 -6.3657762e-06 4.978564e-39
1.7150058 -0.55434936 -4.529953e-06 4.978564e-39
1.7251126 -0.55510318 -6.222725e-06 4.978564e-39
1.7340053 -0.55401742 -7.1525574e-06 4.978564e-39
1.7442394 -0.55477428 -7.1525574e-06 4.978564e-39
1.7558315 -0.55538017 -6.2942504e-06 4.978564e-39
1.7662078 -0.55412632 -6.0796738e-06 4.978564e-39
1.7753534 -0.55504942 -6.8426134e-06 4.978564e-39
1.7858655 -0.5558213 -7.5101852e-06 4.978564e-39
1.7951291 -0.5547145 -7.5101852e-06 4.978564e-39
1.8057777 -0.55549008 -7.7486038e-06 4.978564e-39
1.8151617 -0.55437475 -7.2240828e-06 4.978564e-39
1.8259509 -0.55515444 -7.8678131e-06 4.978564e-39
1.8361386 -0.55498499 -6.2584877e-06 4.978564e-39
1.8463862 -0.55481303 -4.7683716e-06 4.978564e-39
1.8532641 -0.55608642 -8.3446503e-06 4.978564e-39
1.8629401 -0.55495536 -7.367134e-06 4.978564e-39
1.874063 -0.55574822 -5.4836273e-06 4.978564e-39
1.8838718 -0.55460972 -7.0333481e-06 4.978564e-39
1.8951465 -0.5554074 -6.9141388e-06 4.978564e-39
1.9050837 -0.55425888 -5.5551527e-06 4.978564e-39
1.9165142 -0.5550617 -7.8678131e-06 4.978564e-39
1.9237015 -0.55636322 -8.7022781e-06 4.978564e-39
1.9338186 -0.55520731 -7.1048735e-06 4.978564e-39
1.9454534 -0.5560196 -6.7949295e-06 4.978564e-39
1.9544289 -0.55603433 -0.001214124 4.978564e-39
1.9638144 -0.55501354 -6.9141388e-06 4.978564e-39
1.9749247 -0.5548352 -6.9141388e-06 4.978564e-39
1.9861212 -0.55465734 -7.0929527e-06 4.978564e-39
1.9973863 -0.55447668 -7.5101852e-06 4.978564e-39
2.0049398 -0.55362839 -5.6028366e-06 4.978564e-39
2.0125341 -0.55496341 -7.9870224e-06 4.978564e-39
2.024756 -0.55579364 -6.8187715e-06 4.978564e-39
2.0355167 -0.55460036 -5.8412552e-06 4.978564e-39
2.0432506 -0.55594915 -5.8412552e-06 4.978564e-39
2.0541434 -0.55474931 -6.1988831e-06 4.978564e-39
2.0666733 -0.55559146 -7.9870224e-06 4.978564e-39
2.074553 -0.55472845 -7.7486038e-06 4.978564e-39
2.0824692 -0.55386114 -6.9141388e-06 4.978564e-39
2.0944195 -0.55591333 -5.9604645e-06 4.978564e-39
2.1064503 -0.55348384 -8.1062317e-06 4.978564e-39
2.1145167 -0.55485815 -6.0796738e-06 4.978564e-39
2.1226273 -0.55624056 -7.7486038e-06 4.978564e-39
2.1838601 -0.55425644 -7.2002413e-06 4.978564e-39
0.5048728 -0.54495013 -5.2031351e-06 4.978564e-39
0.5147453 -0.54488528 -3.3775966e-06 4.978564e-39
0.52492714 -0.54513144 -5.9902668e-06 4.978564e-39
0.53512353 -0.54490829 -3.9339066e-06 4.978564e-39
0.54564399 -0.54502439 -3.695488e-06 4.978564e-39
0.55382931 -0.54474694 -4.9074492e-06 4.978564e-39
1.5486448 -0.54475498 -5.9604645e-06 4.978564e-39
1.5570889 -0.54457033 -6.377697e-06 4.978564e-39
1.5655779 -0.54438329 -6.5565109e-06 4.978564e-39
1.5746939 -0.54506636 -5.9127806e-06 4.978564e-39
1.5850172 -0.54560292 -5.5313112e-06 4.978564e-39
1.5942527 -0.54438812 -4.529953e-06 4.978564e-39
1.6023906 -0.54523134 -5.4836273e-06 4.978564e-39
1.6146795 -0.54458565 -6.298224e-06 4.978564e-39
1.6264806 -0.54497457 -6.4969063e-06 4.978564e-39
1.635389 -0.54478317 -4.2915344e-06 4.978564e-39
1.6437633 -0.54563981 -5.8174132e-06 4.978564e-39
1.6564078 -0.54498601 -5.2452087e-06 4.978564e-39
1.6655037 -0.54479349 -4.8875809e-06 4.978564e-39
1.6746664 -0.5446021 -7.4505806e-06 4.978564e-39
1.6838763 -0.54440713 -7.0929527e-06 4.978564e-39
1.6937701 -0.54511875 -6.3180923e-06 4.978564e-39
1.7049783 -0.54567868 -7.1525574e-06 4.978564e-39
1.7150058 -0.54441231 -4.529953e-06 4.978564e-39
1.7238461 -0.54529136 -6.1511992e-06 4.978564e-39
1.734007 -0.54401773 -8.4638596e-06 4.978564e-39
1.7429568 -0.54490006 -7.1763993e-06 4.978564e-39
1.7571251 -0.54514658 -6.1988831e-06 4.978564e-39
1.7662078 -0.54401886 -6.0796738e-06 4.978564e-39
1.7758722 -0.54486322 -0.00045923729 4.978564e-39
1.7858628 -0.54564762 -5.364418e-06 4.978564e-39
1.7957927 -0.54545093 -7.5101852e-06 4.978564e-39
1.8057777 -0.54525089 -7.7486038e-06 4.978564e-39
1.8158338 -0.54505044 -6.9141388e-06 4.978564e-39
1.825951 -0.54484808 -7.8678131e-06 4.978564e-39
1.8361386 -0.54464471 -6.2584877e-06 4.978564e-39
1.8463863 -0.54443866 -4.7683716e-06 4.978564e-39
1.8532635 -0.54568899 -7.9472857e-06 4.978564e-39
1.8636334 -0.54548699 -7.2717667e-06 4.978564e-39
1.874063 -0.54528183 -5.4836273e-06 4.978564e-39
1.8845744 -0.54507792 -6.9141388e-06 4.978564e-39
1.8951465 -0.54487073 -6.9141388e-06 4.978564e-39
1.9057962 -0.54466307 -5.8412552e-06 4.978564e-39
1.9165105 -0.54445291 -5.4836273e-06 4.978564e-39
1.9237016 -0.54573154 -8.7022781e-06 4.978564e-39
1.9345437 -0.54552472 -7.0929527e-06 4.978564e-39
1.9454533 -0.54531556 -6.7949295e-06 4.978564e-39
1.9524199 -0.54529959 -0.0010276512 4.978564e-39
1.9645529 -0.5452379 -6.9379807e-06 4.978564e-39
1.9749248 -0.54403305 -6.9141388e-06 4.978564e-39
1.9868691 -0.54481399 -6.6041948e-06 4.978564e-39
1.9973862 -0.54359972 -7.5101852e-06 4.978564e-39
2.0049398 -0.54490674 -5.6028366e-06 4.978564e-39
2.0125341 -0.54622155 -7.9870224e-06 4.978564e-39
2.0232234 -0.54500049 -6.7710876e-06 4.978564e-39
2.0355167 -0.54579729 -5.8412552e-06 4.978564e-39
2.0432506 -0.54491961 -5.8412552e-06 4.978564e-39
2.054924 -0.54470301 -6.0200691e-06 4.978564e-39
2.0666721 -0.54448366 -7.1922937e-06 4.978564e-39
2.074553 -0.54359472 -7.7486038e-06 4.978564e-39
2.0824692 -0.54493308 -6.9141388e-06 4.978564e-39
2.0952187 -0.54574293 -5.8412552e-06 4.978564e-39
2.1064503 -0.54449195 -8.1062317e-06 4.978564e-39
2.1145167 -0.54584473 -6.0796738e-06 4.978564e-39
2.1226273 -0.54494679 -7.7486038e-06 4.978564e-39
2.1307714 -0.54404306 -5.7220459e-06 4.978564e-39
2.1847029 -0.54611814 -7.212162e-06 4.978564e-39
2.4331217 -0.54258519 -8.9406967e-06 4.978564e-39
0.50474167 -0.53489727 -5.3784424e-06 4.978564e-39
0.51474559 -0.53513992 -3.0755996e-06 4.978564e-39
0.52492756 -0.53497219 -6.377697e-06 4.978564e-39
0.53522813 -0.53480041 -4.220009e-06 4.978564e-39
0.54557562 -0.53504729 -4.4177559e-06 4.978564e-39
0.55382949 -0.53503144 -5.284945e-06 4.978564e-39
1.5486447 -0.53537172 -5.9604645e-06 4.978564e-39
1.5576525 -0.53413928 -5.6028366e-06 4.978564e-39
1.5655779 -0.53494358 -6.5565109e-06 4.978564e-39
1.5735517 -0.5357511 -6.1273577e-06 4.978564e-39
1.5855931 -0.53507125 -5.6028366e-06 4.978564e-39
1.5942527 -0.53485298 -4.529953e-06 4.978564e-39
1.6029741 -0.5346356 -5.8809915e-06 4.978564e-39
1.6146789 -0.53498226 -5.6624413e-06 4.978564e-39
1.6264811 -0.53533232 -7.0134797e-06 4.978564e-39
1.6353923 -0.53511226 -7.1525574e-06 4.978564e-39
1.6443635 -0.53489161 -6.2584877e-06 4.978564e-39
1.6564085 -0.53524429 -5.9604645e-06 4.978564e-39
1.6655039 -0.53502113 -4.8875809e-06 4.978564e-39
1.6746651 -0.53479892 -6.4373016e-06 4.978564e-39
1.6838771 -0.53457397 -7.8678131e-06 4.978564e-39
1.6925297 -0.53541374 -6.1750411e-06 4.978564e-39
1.7056036 -0.53470445 -7.1525574e-06 4.978564e-39
1.7150058 -0.53447521 -4.529953e-06 4.978564e-39
1.7251129 -0.53516197 -6.532669e-06 4.978564e-39
1.7340053 -0.53401685 -7.0929527e-06 4.978564e-39
1.7442402 -0.53470582 -7.7247623e-06 4.978564e-39
1.755832 -0.53523433 -6.5565109e-06 4.978564e-39
1.7662078 -0.5359329 -6.0796738e-06 4.978564e-39
1.7753538 -0.53477371 -7.1048735e-06 4.978564e-39
1.7858628 -0.53547466 -5.364418e-06 4.978564e-39
1.795791 -0.53524441 -6.1392784e-06 4.978564e-39
1.8057777 -0.53501171 -7.7486038e-06 4.978564e-39
1.8158337 -0.53477782 -6.9141388e-06 4.978564e-39
1.8259509 -0.53454173 -7.8678131e-06 4.978564e-39
1.8368202 -0.53525293 -6.508827e-06 4.978564e-39
1.8463862 -0.53406429 -4.7683716e-06 4.978564e-39
1.8532624 -0.53529143 -7.1525574e-06 4.978564e-39
1.8636328 -0.53505504 -6.8545341e-06 4.978564e-39
1.874063 -0.53481531 -5.4836273e-06 4.978564e-39
1.885277 -0.53553957 -6.7949295e-06 4.978564e-39
1.8951465 -0.53433412 -6.9141388e-06 4.978564e-39
1.9065088 -0.53506064 -6.1273577e-06 4.978564e-39
1.9165105 -0.53384519 -5.4836273e-06 4.978564e-39
1.9236979 -0.53509879 -6.3180923e-06 4.978564e-39
1.9352688 -0.53583539 -7.081032e-06 4.978564e-39
1.9454534 -0.53461146 -6.7949295e-06 4.978564e-39
1.9527738 -0.53587878 -8.8214874e-06 4.978564e-39
1.9630759 -0.53464681 -6.8902968e-06 4.978564e-39
1.9749248 -0.53539133 -6.9141388e-06 4.978564e-39
1.9853718 -0.53414994 -6.6280363e-06 4.978564e-39
1.9973862 -0.53489822 -7.5101852e-06 4.978564e-39
2.0049398 -0.53618515 -5.6028366e-06 4.978564e-39
2.0125341 -0.53529423 -7.9870224e-06 4.978564e-39
2.0239899 -0.53504544 -6.8545341e-06 4.978564e-39
2.0355167 -0.53479344 -5.8412552e-06 4.978564e-39
2.0432506 -0.53389001 -5.8412552e-06 4.978564e-39
2.054924 -0.53584826 -6.0200691e-06 4.978564e-39
2.0666697 -0.53337544 -5.6028366e-06 4.978564e-39
2.074553 -0.53468776 -7.7486038e-06 4.978564e-39
2.0824692 -0.53600496 -6.9141388e-06 4.978564e-39
2.0936208 -0.53472418 -6.3180923e-06 4.978564e-39
2.1064503 -0.53549999 -8.1062317e-06 4.978564e-39
2.1145179 -0.53457826 -6.8744025e-06 4.978564e-39
2.1230054 -0.53452772 -0.00040901682 4.978564e-39
2.1307731 -0.53498685 -6.9737434e-06 4.978564e-39
0.50461084 -0.52484667 -5.5747873e-06 4.978564e-39
0.51484787 -0.5251447 -2.9206276e-06 4.978564e-39
0.5249272 -0.52481276 -6.2584877e-06 4.978564e-39
0.53522789 -0.52494329 -4.2858578e-06 4.978564e-39
0.54564399 -0.52507609 -3.695488e-06 4.978564e-39
0.55364883 -0.52491945 -5.2360388e-06 4.978564e-39
1.5486447 -0.52411157 -5.9604645e-06 4.978564e-39
1.5565233 -0.52488399 -5.2928926e-06 4.978564e-39
1.5655795 -0.52550447 -8.046627e-06 4.978564e-39
1.5741235 -0.52525991 -6.6757202e-06 4.978564e-39
1.5861695 -0.52453363 -6.0558318e-06 4.978564e-39
1.5942527 -0.52531785 -4.529953e-06 4.978564e-39
1.6029743 -0.5250715 -6.1392784e-06 4.978564e-39
1.6146774 -0.52537864 -4.5895576e-06 4.978564e-39
1.6270739 -0.52464378 -7.2717667e-06 4.978564e-39
1.6353923 -0.52544022 -7.1525574e-06 4.978564e-39
1.6443636 -0.5251897 -6.2584877e-06 4.978564e-39
1.6564087 -0.52550226 -5.9604645e-06 4.978564e-39
1.6655037 -0.52524889 -4.8875809e-06 4.978564e-39
1.6746646 -0.52499598 -5.9604645e-06 4.978564e-39
1.6838771 -0.52474052 -7.8678131e-06 4.978564e-39
1.6937702 -0.52538615 -6.5803529e-06 4.978564e-39
1.7056036 -0.52479869 -7.1525574e-06 4.978564e-39
1.7150058 -0.52453822 -4.529953e-06 4.978564e-39
1.7238464 -0.52535856 -6.4611436e-06 4.978564e-39
1.7340037 -0.52401608 -5.7220459e-06 4.978564e-39
1.7429568 -0.52483988 -7.1763993e-06 4.978564e-39
1.7571251 -0.52499211 -6.1988831e-06 4.978564e-39
1.7662078 -0.52582538 -6.0796738e-06 4.978564e-39
1.776664 -0.5244652 -6.9618227e-06 4.978564e-39
1.7858628 -0.52530181 -5.364418e-06 4.978564e-39
1.7957909 -0.52503848 -6.1392784e-06 4.978564e-39
1.8057777 -0.52477252 -7.7486038e-06 4.978564e-39
1.8158338 -0.52450514 -6.9141388e-06 4.978564e-39
1.825951 -0.52423543 -7.8678131e-06 4.978564e-39
1.8354571 -0.5250839 -6.0081484e-06 4.978564e-39
1.8463862 -0.52576482 -4.7683716e-06 4.978564e-39
1.8532624 -0.52489424 -7.1525574e-06 4.978564e-39
1.8636316 -0.52462298 -6.0200691e-06 4.978564e-39
1.874063 -0.52434891 -5.4836273e-06 4.978564e-39
1.8838718 -0.52521229 -7.0333481e-06 4.978564e-39
1.8951465 -0.52590483 -6.9141388e-06 4.978564e-39
1.9050837 -0.52466375 -5.5551527e-06 4.978564e-39
1.9165105 -0.52535903 -5.4836273e-06 4.978564e-39
1.9236979 -0.52446717 -6.3180923e-06 4.978564e-39
1.9338179 -0.52534407 -6.6280363e-06 4.978564e-39
1.9454534 -0.52604824 -6.7949295e-06 4.978564e-39
1.9527737 -0.52515036 -8.8214874e-06 4.978564e-39
1.9638144 -0.52487105 -6.9141388e-06 4.978564e-39
1.9749247 -0.52458918 -6.9141388e-06 4.978564e-39
1.9861202 -0.52430671 -6.4969063e-06 4.978564e-39
1.9973862 -0.52619666 -7.5101852e-06 4.978564e-39
2.004941 -0.5252834 -6.4770379e-06 4.978564e-39
2.0125341 -0.52436686 -7.9870224e-06 4.978564e-39
2.0247564 -0.5250833 -7.1525574e-06 4.978564e-39
2.0355177 -0.52378988 -6.4373016e-06 4.978564e-39
2.0432506 -0.52506638 -5.8412552e-06 4.978564e-39
2.0557053 -0.52579284 -6.5803529e-06 4.978564e-39
2.0666714 -0.52448988 -6.7949295e-06 4.978564e-39
2.0745521 -0.52578044 -7.1525574e-06 4.978564e-39
2.0824714 -0.52484542 -8.1062317e-06 4.978564e-39
2.0944204 -0.52455389 -6.5565109e-06 4.978564e-39
2.1064503 -0.52650803 -8.1062317e-06 4.978564e-39
2.1145203 -0.52331215 -8.4638596e-06 4.978564e-39
2.1226273 -0.52461803 -7.7486038e-06 4.978564e-39
2.130775 -0.52819473 -8.225441e-06 4.978564e-39
2.1847038 -0.52541769 -7.8082085e-06 4.978564e-39
2.2447217 -0.52556604 -7.5697899e-06 4.978564e-39
0.50467616 -0.51509982 -4.61936e-06 4.978564e-39
0.51453143 -0.51493979 -2.9404957e-06 4.978564e-39
0.5249939 -0.51495427 -5.9113781e-06 4.978564e-39
0.53522807 -0.51508635 -4.220009e-06 4.978564e-39
0.54543865 -0.51509482 -3.5342048e-06 4.978564e-39
0.55382949 -0.51479143 -5.284945e-06 4.978564e-39
1.5486448 -0.51472831 -5.9604645e-06 4.978564e-39
1.5570883 -0.51445335 -5.6028366e-06 4.978564e-39
1.5655779 -0.51606411 -6.5565109e-06 4.978564e-39
1.574694 -0.51476222 -6.1035157e-06 4.978564e-39
1.5850178 -0.51518905 -6.1035157e-06 4.978564e-39
1.5942527 -0.51387566 -4.529953e-06 4.978564e-39
1.6029743 -0.51550728 -6.1392784e-06 4.978564e-39
1.6152651 -0.51473147 -4.4822691e-06 4.978564e-39
1.6258881 -0.51516497 -6.3419343e-06 4.978564e-39
1.6353923 -0.51576805 -7.1525574e-06 4.978564e-39
1.6443635 -0.51548773 -6.2584877e-06 4.978564e-39
1.6570137 -0.51470119 -6.222725e-06 4.978564e-39
1.6655039 -0.51547652 -4.8875809e-06 4.978564e-39
1.6740725 -0.51571786 -0.00035940221 4.978564e-39
1.6838765 -0.51490688 -7.3512397e-06 4.978564e-39
1.6925299 -0.51568919 -6.1750411e-06 4.978564e-39
1.7056036 -0.51489288 -7.1525574e-06 4.978564e-39
1.7150058 -0.51460111 -4.529953e-06 4.978564e-39
1.7251129 -0.51522052 -6.532669e-06 4.978564e-39
1.7340037 -0.51401567 -5.7220459e-06 4.978564e-39
1.74424 -0.51463711 -7.7247623e-06 4.978564e-39
1.755832 -0.51508844 -6.5565109e-06 4.978564e-39
1.7662078 -0.51571792 -6.0796738e-06 4.978564e-39
1.7753538 -0.51449788 -7.1048735e-06 4.978564e-39
1.7858628 -0.51512885 -5.364418e-06 4.978564e-39
1.7957908 -0.51483256 -6.1392784e-06 4.978564e-39
1.805776 -0.5145328 -6.4373016e-06 4.978564e-39
1.8165058 -0.51517016 -6.6041948e-06 4.978564e-39
1.8259509 -0.51392913 -7.8678131e-06 4.978564e-39
1.8368202 -0.51456791 -6.508827e-06 4.978564e-39
1.8463863 -0.51539057 -4.7683716e-06 4.978564e-39
1.8532624 -0.51449692 -7.1525574e-06 4.978564e-39
1.864323 -0.51514292 -4.6014784e-06 4.978564e-39
1.874063 -0.5138824 -5.4836273e-06 4.978564e-39
1.8845743 -0.51567388 -6.9141388e-06 4.978564e-39
1.8951465 -0.51536816 -6.9141388e-06 4.978564e-39
1.9057962 -0.51506126 -5.8412552e-06 4.978564e-39
1.9165111 -0.51475137 -5.8809915e-06 4.978564e-39
1.9236979 -0.51383549 -6.3180923e-06 4.978564e-39
1.9345434 -0.51565486 -6.7949295e-06 4.978564e-39
1.9454557 -0.5153448 -8.384387e-06 4.978564e-39
1.9527738 -0.51442194 -8.8214874e-06 4.978564e-39
1.9645532 -0.51508868 -7.1763993e-06 4.978564e-39
1.9749266 -0.51378751 -8.1062317e-06 4.978564e-39
1.9861212 -0.51563543 -7.0929527e-06 4.978564e-39
1.9973863 -0.51531976 -7.5101852e-06 4.978564e-39
2.0049434 -0.514382 -8.225441e-06 4.978564e-39
2.0125341 -0.515625 -7.9870224e-06 4.978564e-39
2.0232246 -0.5143047 -7.6293945e-06 4.978564e-39
2.0355189 -0.51498711 -7.0333481e-06 4.978564e-39
2.0432506 -0.51624274 -5.8412552e-06 4.978564e-39
2.0541453 -0.51491284 -7.4625013e-06 4.978564e-39
2.0666714 -0.5156039 -6.7949295e-06 4.978564e-39
2.0745513 -0.51464647 -6.5565109e-06 4.978564e-39
2.0824695 -0.51368475 -6.9141388e-06 4.978564e-39
2.0944204 -0.51559401 -6.5565109e-06 4.978564e-39
2.1064503 -0.51526815 -8.1062317e-06 4.978564e-39
2.1145203 -0.51429874 -8.4638596e-06 4.978564e-39
2.1226273 -0.51558304 -7.7486038e-06 4.978564e-39
2.1362314 -0.51244789 -7.4307122e-06 4.978564e-39
2.1889169 -0.51917642 -7.2717667e-06 4.978564e-39
2.2447217 -0.51854599 -7.5697899e-06 4.978564e-39
0.50467622 -0.50505477 -4.0067566e-06 4.978564e-39
0.51485264 -0.50496286 -3.3775966e-06 4.978564e-39
0.52492678 -0.50509077 -5.0961971e-06 4.978564e-39
0.53511846 -0.50522071 -4.6434857e-06 4.978564e-39
0.54584956 -0.50483197 -3.5622541e-06 4.978564e-39
0.55382979 -0.50507605 -6.0796738e-06 4.978564e-39
1.5486447 -0.50534493 -5.9604645e-06 4.978564e-39
1.5570881 -0.5050419 -5.6028366e-06 4.978564e-39
1.5655779 -0.50473648 -6.5565109e-06 4.978564e-39
1.5735505 -0.50545865 -4.8637389e-06 4.978564e-39
1.5855936 -0.50465119 -6.0796738e-06 4.978564e-39
1.5942527 -0.50434053 -4.529953e-06 4.978564e-39
1.603557 -0.50490123 -5.8650971e-06 4.978564e-39
1.61409 -0.50529587 -4.6968462e-06 4.978564e-39
1.6264796 -0.50447607 -5.543232e-06 4.978564e-39
1.6363425 -0.50500131 -0.00080539932 4.978564e-39
1.6449635 -0.50472891 -6.1750411e-06 4.978564e-39
1.6558034 -0.50512886 -5.6982039e-06 4.978564e-39
1.6655037 -0.50570428 -4.8875809e-06 4.978564e-39
1.6746641 -0.50539023 -5.7220459e-06 4.978564e-39
1.6838754 -0.50507307 -6.3180923e-06 4.978564e-39
1.69315 -0.50475478 -6.377697e-06 4.978564e-39
1.7056037 -0.50498712 -7.1525574e-06 4.978564e-39
1.7150058 -0.50466412 -4.529953e-06 4.978564e-39
1.7238464 -0.50542557 -6.4611436e-06 4.978564e-39
1.7340037 -0.50401539 -5.7220459e-06 4.978564e-39
1.7429552 -0.50477916 -6.0796738e-06 4.978564e-39
1.7571251 -0.50483757 -6.1988831e-06 4.978564e-39
1.7662078 -0.50561047 -6.0796738e-06 4.978564e-39
1.7760088 -0.50528538 -7.0333481e-06 4.978564e-39
1.7858628 -0.50495601 -5.364418e-06 4.978564e-39
1.7957909 -0.50462657 -6.1392784e-06 4.978564e-39
1.8057748 -0.50429332 -5.5631003e-06 4.978564e-39
1.8151621 -0.50507683 -7.5101852e-06 4.978564e-39
1.8259509 -0.50568402 -7.8678131e-06 4.978564e-39
1.8354576 -0.50440818 -6.5565109e-06 4.978564e-39
1.8463871 -0.50501645 -5.4836273e-06 4.978564e-39
1.8532624 -0.50617921 -7.1525574e-06 4.978564e-39
1.8629372 -0.50489336 -5.2928926e-06 4.978564e-39
1.8740665 -0.50551027 -8.1062317e-06 4.978564e-39
1.8845752 -0.50517267 -7.5101852e-06 4.978564e-39
1.8951465 -0.50483155 -6.9141388e-06 4.978564e-39
1.9065094 -0.50545233 -6.6041948e-06 4.978564e-39
1.9165123 -0.50414401 -6.6757202e-06 4.978564e-39
1.9236979 -0.5053302 -6.3180923e-06 4.978564e-39
1.9345436 -0.50498724 -7.0929527e-06 4.978564e-39
1.9454569 -0.50464106 -9.1791153e-06 4.978564e-39
1.9527738 -0.50583917 -8.8214874e-06 4.978564e-39
1.9630769 -0.50451142 -7.6055526e-06 4.978564e-39
1.9749266 -0.50514579 -8.1062317e-06 4.978564e-39
1.9868698 -0.5057832 -7.081032e-06 4.978564e-39
1.9973862 -0.50444281 -7.5101852e-06 4.978564e-39
2.0049434 -0.50566036 -8.225441e-06 4.978564e-39
2.0125318 -0.50469702 -6.3180923e-06 4.978564e-39
2.0239906 -0.50434238 -7.5101852e-06 4.978564e-39
2.0355189 -0.50618404 -7.0333481e-06 4.978564e-39
2.0432506 -0.5052132 -5.8412552e-06 4.978564e-39
2.0549257 -0.50485712 -7.2717667e-06 4.978564e-39
2.0666714 -0.50449634 -6.7949295e-06 4.978564e-39
2.0745513 -0.50351274 -6.5565109e-06 4.978564e-39
2.0824676 -0.50475621 -5.7220459e-06 4.978564e-39
2.0952196 -0.50541413 -6.5565109e-06 4.978564e-39
2.1064503 -0.5040282 -8.1062317e-06 4.978564e-39
2.1145203 -0.50528532 -8.4638596e-06 4.978564e-39
2.1226273 -0.50654793 -7.7486038e-06 4.978564e-39
2.1362314 -0.50488615 -7.4307122e-06 4.978564e-39
2.205894 -0.50563264 -5.8412552e-06 4.978564e-39
2.2144487 -0.50693125 -7.2717667e-06 4.978564e-39
0.50474149 -0.49471632 -4.6351379e-06 4.978564e-39
0.51474577 -0.49497095 -4.2631514e-06 4.978564e-39
0.52485985 -0.49522883 -5.434541e-06 4.978564e-39
0.5354476 -0.49512592 -4.217738e-06 4.978564e-39
0.54564399 -0.49485081 -3.7252903e-06 4.978564e-39
0.55382961 -0.49536017 -5.5134296e-06 4.978564e-39
1.5486447 -0.49408486 -5.9604645e-06 4.978564e-39
1.5568396 -0.4952623 -0.00035332117 4.978564e-39
1.5655779 -0.49529675 -6.5565109e-06 4.978564e-39
1.574122 -0.49496126 -5.1856041e-06 4.978564e-39
1.5855936 -0.49514484 -6.0796738e-06 4.978564e-39
1.5942527 -0.49480534 -4.529953e-06 4.978564e-39
1.6023918 -0.49550802 -6.4134597e-06 4.978564e-39
1.6146775 -0.49464867 -4.5895576e-06 4.978564e-39
1.626479 -0.49483347 -5.0663948e-06 4.978564e-39
1.6353923 -0.49448952 -7.1525574e-06 4.978564e-39
1.6437639 -0.49520034 -6.3419343e-06 4.978564e-39
1.6570137 -0.49521309 -6.222725e-06 4.978564e-39
1.6655039 -0.49593195 -4.8875809e-06 4.978564e-39
1.6752764 -0.49451748 -5.6505205e-06 4.978564e-39
1.6838754 -0.49523962 -6.3180923e-06 4.978564e-39
1.69315 -0.49489045 -6.377697e-06 4.978564e-39
1.705604 -0.49508145 -7.3711076e-06 4.978564e-39
1.7150058 -0.49472702 -4.529953e-06 4.978564e-39
1.7251133 -0.49527922 -6.7949295e-06 4.978564e-39
1.7340037 -0.49401513 -5.7220459e-06 4.978564e-39
1.7442383 -0.49456778 -6.3419343e-06 4.978564e-39
1.7558311 -0.49494237 -6.0796738e-06 4.978564e-39
1.7662095 -0.49550346 -7.390976e-06 4.978564e-39
1.7760096 -0.49514544 -7.5101852e-06 4.978564e-39
1.7858628 -0.4947831 -5.364418e-06 4.978564e-39
1.7964566 -0.49534854 -7.5101852e-06 4.978564e-39
1.805776 -0.4940545 -6.4373016e-06 4.978564e-39
1.816507 -0.49462065 -7.4625013e-06 4.978564e-39
1.825951 -0.49537769 -7.8678131e-06 4.978564e-39
1.8361404 -0.4950121 -7.6591969e-06 4.978564e-39
1.846388 -0.49464238 -6.1988831e-06 4.978564e-39
1.8532624 -0.49578193 -7.1525574e-06 4.978564e-39
1.8636307 -0.4954139 -5.3048134e-06 4.978564e-39
1.8740665 -0.49504378 -8.1062317e-06 4.978564e-39
